ncols         250
nrows         70
xllcorner     0
yllcorner     1400
cellsize      20
NODATA_value  -1
4.8 3.2 2.4 2.4 2.4 1.6 7.2 9.6 11.2 12 13.6 14.4 16 16.8 18.4 19.2 20.8 22.4 23.2 24.8 25.6 26.4 28 29.6 32 35.2 40.8 53.6 66.4 81.6 96.8 112 128.8 144 159.2 177.6 190.4 202.4 216.8 227.2 238.4 248.8 257.6 266.4 277.6 290.4 304 312 314.4 320 330.4 342.4 354.4 366.4 377.6 385.6 393.6 406.4 421.6 436.8 448 460 471.2 482.4 485.6 481.6 476 470.4 465.6 462.4 462.4 462.4 461.6 464 474.4 488.8 500.8 510.4 517.6 518.4 516 511.2 505.6 501.6 499.2 496.8 494.4 493.6 496 495.2 491.2 485.6 476.8 472 470.4 470.4 472 472 468.8 460 444 424 422.4 424.8 425.6 425.6 426.4 428 430.4 428 416.8 400 396.8 410.4 424.8 433.6 440 445.6 451.2 458.4 464.8 470.4 476.8 484 492 500.8 512.8 518.4 520.8 521.6 528 532.8 536.8 538.4 540 539.2 536 540 545.6 548.8 548.8 551.2 562.4 576 584 588 591.2 593.6 596.8 603.2 608.8 616.8 623.2 624 620.8 624 632.8 643.2 654.4 664 672 675.2 673.6 676.8 680 683.2 686.4 692 697.6 704.8 720 734.4 743.2 747.2 748.8 747.2 747.2 751.2 760 766.4 776 790.4 800.8 788 757.6 739.2 727.2 716.8 708.8 706.4 706.4 706.4 706.4 706.4 711.2 730.4 753.6 767.2 769.6 769.6 773.6 774.4 772 771.2 770.4 770.4 770.4 772 775.2 778.4 786.4 796.8 804.8 809.6 811.2 814.4 819.2 826.4 835.2 840.8 849.6 861.6 871.2 876.8 884.8 893.6 904.8 921.6 932.8 949.6 982.4 1004.8 995.2 971.2 954.4 942.4 934.4 925.6 917.6 912 910.4 911.2 912.8 920 929.6 946.4 967.2 989.6 1012 1026.4
6.4 4.8 4 3.2 2.4 1.6 7.2 9.6 11.2 12 12.8 14.4 15.2 16.8 18.4 19.2 20.8 21.6 22.4 23.2 24.8 25.6 27.2 28 29.6 33.6 40 52 64.8 80 96 110.4 127.2 142.4 157.6 176 189.6 202.4 216.8 228 240 250.4 260 269.6 282.4 295.2 308 314.4 318.4 325.6 336.8 348.8 361.6 375.2 388.8 398.4 405.6 413.6 426.4 440 452.8 465.6 476.8 486.4 492.8 492 488.8 484.8 480 477.6 477.6 477.6 476.8 475.2 479.2 494.4 507.2 517.6 525.6 528 526.4 521.6 516.8 512.8 508 508.8 508.8 505.6 506.4 508.8 506.4 500 492 488 485.6 484.8 487.2 486.4 481.6 472 453.6 434.4 437.6 440 440.8 442.4 444 444.8 442.4 438.4 428.8 414.4 406.4 414.4 430.4 441.6 452.8 460.8 469.6 478.4 484.8 490.4 497.6 504.8 514.4 524.8 532 538.4 538.4 534.4 535.2 540 544.8 550.4 552.8 552.8 548 548.8 553.6 558.4 560.8 562.4 565.6 575.2 589.6 598.4 602.4 604.8 605.6 610.4 616.8 620.8 625.6 627.2 627.2 627.2 632 639.2 646.4 652.8 662.4 666.4 669.6 675.2 679.2 682.4 687.2 694.4 700.8 708.8 720 733.6 747.2 754.4 756 752.8 748.8 749.6 757.6 767.2 775.2 788.8 806.4 803.2 777.6 751.2 737.6 727.2 716.8 709.6 708 706.4 706.4 706.4 712 725.6 744.8 762.4 767.2 768 771.2 769.6 767.2 766.4 767.2 768 768.8 771.2 774.4 779.2 787.2 794.4 799.2 804 808.8 814.4 818.4 828 840 844.8 853.6 867.2 879.2 886.4 892 900.8 912 928 941.6 960 997.6 1014.4 1008 983.2 964 951.2 941.6 933.6 924.8 916.8 913.6 913.6 919.2 926.4 936 944.8 962.4 984.8 1005.6 1027.2
8 5.6 5.6 4.8 3.2 2.4 7.2 9.6 10.4 12 12.8 13.6 15.2 16.8 17.6 19.2 20 20.8 21.6 23.2 24 24.8 26.4 27.2 28 32 38.4 50.4 63.2 79.2 94.4 108.8 125.6 140.8 155.2 172 186.4 199.2 212 225.6 239.2 250.4 261.6 272 285.6 299.2 311.2 316.8 321.6 331.2 341.6 354.4 368 382.4 396 407.2 417.6 426.4 436 445.6 457.6 469.6 481.6 490.4 499.2 504.8 503.2 499.2 494.4 491.2 492 492 492 491.2 492 500 511.2 524 534.4 536.8 536 532.8 529.6 525.6 520.8 520.8 520.8 518.4 517.6 520.8 521.6 518.4 512 506.4 502.4 502.4 503.2 500.8 494.4 483.2 464.8 449.6 454.4 456.8 460 462.4 464 463.2 457.6 450.4 440.8 430.4 419.2 420 432.8 447.2 460 472.8 484 496 504.8 510.4 519.2 528 536 545.6 552.8 557.6 556 550.4 545.6 547.2 552.8 559.2 562.4 563.2 560.8 559.2 562.4 567.2 571.2 573.6 575.2 579.2 591.2 604.8 612.8 615.2 616.8 618.4 622.4 625.6 629.6 630.4 633.6 636 632.8 637.6 641.6 646.4 652.8 658.4 667.2 676.8 683.2 688 691.2 697.6 707.2 716.8 724.8 740.8 759.2 766.4 763.2 757.6 753.6 752 756 764 772 784.8 801.6 809.6 797.6 768 748.8 738.4 728 720 715.2 709.6 707.2 712 721.6 731.2 745.6 760.8 764.8 766.4 768 766.4 766.4 766.4 766.4 766.4 766.4 769.6 772.8 778.4 784.8 789.6 792.8 796.8 805.6 816 820 828.8 840 848.8 859.2 871.2 885.6 894.4 900.8 908 920 934.4 955.2 982.4 1010.4 1027.2 1024.8 1003.2 980 964 950.4 942.4 938.4 934.4 925.6 924.8 928.8 934.4 941.6 950.4 962.4 979.2 997.6 1020.8
8.8 8 8 6.4 4 3.2 8 9.6 10.4 11.2 12 13.6 14.4 16 17.6 18.4 19.2 20 21.6 22.4 24 24.8 25.6 26.4 28 32 38.4 48.8 61.6 77.6 92.8 106.4 121.6 136.8 151.2 165.6 180 192 205.6 220 235.2 248.8 261.6 273.6 288 301.6 312 318.4 325.6 335.2 346.4 359.2 373.6 388 401.6 414.4 427.2 437.6 446.4 455.2 464.8 475.2 484.8 493.6 504.8 515.2 517.6 514.4 509.6 506.4 506.4 506.4 506.4 506.4 507.2 510.4 517.6 529.6 538.4 543.2 545.6 544.8 543.2 540.8 538.4 536 534.4 532 529.6 531.2 535.2 534.4 532 528 524 520.8 518.4 512.8 504.8 491.2 472 468 474.4 477.6 480.8 483.2 484 480.8 472.8 463.2 453.6 444 432.8 426.4 436 449.6 464 477.6 491.2 505.6 516.8 528 537.6 547.2 556 565.6 571.2 572.8 570.4 565.6 560 557.6 560.8 566.4 570.4 572.8 572.8 570.4 571.2 575.2 580 583.2 586.4 588.8 592 607.2 620 625.6 628 627.2 628 631.2 636 636 638.4 645.6 643.2 642.4 648 652.8 659.2 662.4 670.4 680.8 688.8 695.2 700 705.6 716 728 736 747.2 759.2 767.2 765.6 761.6 757.6 754.4 755.2 760.8 767.2 777.6 792 804.8 808.8 792 762.4 748.8 740.8 733.6 728.8 724.8 728 740 744.8 749.6 755.2 762.4 765.6 765.6 766.4 766.4 766.4 766.4 766.4 766.4 766.4 766.4 768.8 775.2 782.4 787.2 791.2 796 804 815.2 822.4 835.2 847.2 854.4 864 875.2 888.8 900.8 913.6 923.2 931.2 948.8 977.6 1003.2 1022.4 1037.6 1046.4 1034.4 1006.4 983.2 963.2 953.6 949.6 953.6 946.4 938.4 937.6 944 950.4 958.4 969.6 980.8 995.2 1012
9.6 9.6 9.6 8.8 5.6 3.2 8 9.6 10.4 11.2 12 12.8 14.4 15.2 16.8 17.6 18.4 20 21.6 22.4 24 24.8 25.6 26.4 28 31.2 38.4 48 59.2 75.2 89.6 103.2 116.8 130.4 142.4 156 170.4 184 197.6 212.8 228.8 243.2 260 273.6 287.2 301.6 312.8 320 328 338.4 349.6 362.4 376.8 390.4 404.8 420 432 444 454.4 464.8 472.8 480.8 488.8 497.6 508.8 519.2 526.4 527.2 524 521.6 521.6 521.6 522.4 522.4 523.2 524.8 527.2 534.4 541.6 548 553.6 556 556.8 554.4 552.8 552 549.6 544.8 543.2 545.6 549.6 552 548.8 544.8 538.4 532.8 528 521.6 508.8 492 480 483.2 489.6 494.4 500 504.8 503.2 495.2 485.6 474.4 464 454.4 444 431.2 439.2 452 466.4 479.2 492.8 507.2 519.2 535.2 548 557.6 571.2 579.2 584.8 587.2 585.6 580.8 575.2 570.4 569.6 572.8 576 579.2 580.8 580 580 583.2 588 592.8 596 600.8 603.2 605.6 619.2 632.8 636.8 637.6 636.8 639.2 644.8 646.4 645.6 652 659.2 654.4 657.6 661.6 668 674.4 680.8 690.4 697.6 703.2 708.8 717.6 727.2 739.2 748 751.2 759.2 765.6 766.4 764.8 760.8 756 754.4 759.2 764 768.8 781.6 794.4 806.4 811.2 785.6 762.4 752.8 748 746.4 748.8 755.2 764 767.2 771.2 773.6 773.6 769.6 767.2 766.4 766.4 766.4 766.4 766.4 766.4 766.4 767.2 768 772.8 780.8 788 793.6 799.2 804 813.6 824.8 840 852 860.8 870.4 881.6 893.6 909.6 929.6 940 948.8 972.8 995.2 1014.4 1033.6 1049.6 1066.4 1068 1042.4 1008 981.6 966.4 963.2 968.8 968.8 960 951.2 957.6 964.8 970.4 981.6 992 1007.2 1024
11.2 10.4 10.4 9.6 8 4 4.8 8.8 9.6 10.4 12 12.8 14.4 15.2 16.8 17.6 18.4 20 20.8 22.4 24 24.8 25.6 27.2 28 32 37.6 46.4 57.6 71.2 84 96.8 109.6 122.4 134.4 149.6 164 178.4 194.4 211.2 224.8 237.6 252.8 269.6 284 300 311.2 320 330.4 340 351.2 364 377.6 392 407.2 421.6 435.2 448 459.2 470.4 480 488 495.2 503.2 512.8 522.4 532 537.6 536 535.2 535.2 536 536 536.8 536.8 537.6 538.4 540.8 545.6 551.2 560.8 568.8 572 572 572 570.4 566.4 560 556.8 559.2 565.6 570.4 568.8 565.6 557.6 544.8 535.2 526.4 511.2 500.8 494.4 492.8 500.8 512 521.6 524.8 521.6 508 495.2 484 474.4 464 455.2 444.8 444.8 456 469.6 481.6 493.6 507.2 520 535.2 549.6 561.6 575.2 586.4 596 600.8 599.2 594.4 588 582.4 580 580 583.2 585.6 588 589.6 589.6 592 596.8 602.4 605.6 609.6 614.4 615.2 618.4 634.4 643.2 647.2 650.4 651.2 655.2 658.4 660 658.4 669.6 670.4 666.4 670.4 675.2 684 694.4 703.2 709.6 715.2 724.8 734.4 742.4 751.2 759.2 762.4 764 767.2 769.6 769.6 766.4 759.2 754.4 757.6 760.8 762.4 771.2 785.6 803.2 820 817.6 783.2 766.4 766.4 770.4 772 772.8 779.2 784.8 791.2 788 785.6 780.8 775.2 770.4 768 766.4 766.4 766.4 768 767.2 768 768.8 773.6 779.2 787.2 794.4 804 808.8 816 830.4 840.8 852.8 864.8 877.6 889.6 903.2 922.4 947.2 960.8 970.4 989.6 1009.6 1025.6 1044 1064.8 1088 1103.2 1084 1038.4 1007.2 981.6 973.6 981.6 990.4 988.8 973.6 972 980.8 991.2 999.2 1009.6 1019.2 1031.2
12 11.2 11.2 10.4 9.6 7.2 4 6.4 8.8 11.2 15.2 16.8 16.8 17.6 17.6 18.4 19.2 20 20.8 22.4 24 24.8 26.4 27.2 29.6 34.4 40 48 56.8 68.8 80.8 94.4 111.2 125.6 139.2 158.4 176.8 188.8 200 216 229.6 243.2 257.6 272.8 286.4 299.2 308 318.4 330.4 340.8 352 364 377.6 392 406.4 421.6 436.8 449.6 462.4 474.4 484 492 499.2 507.2 515.2 524 534.4 545.6 548 548 548 549.6 550.4 550.4 549.6 548.8 548 549.6 552 557.6 567.2 580 588 589.6 588 586.4 583.2 576 572 573.6 579.2 583.2 584 580 568.8 554.4 541.6 530.4 525.6 524 516.8 506.4 509.6 524.8 533.6 538.4 535.2 519.2 502.4 490.4 482.4 474.4 464.8 455.2 451.2 460 472.8 484.8 496 507.2 520 533.6 548 560.8 575.2 588 602.4 610.4 610.4 607.2 601.6 596 591.2 589.6 591.2 592.8 596 599.2 600 599.2 603.2 610.4 615.2 620 627.2 628.8 627.2 635.2 648 656 660.8 662.4 664.8 672 676 673.6 676 683.2 676.8 679.2 684.8 689.6 703.2 716.8 724.8 732.8 740 749.6 756.8 763.2 769.6 774.4 774.4 774.4 776 776 772 763.2 755.2 755.2 756 757.6 763.2 782.4 804 823.2 840 813.6 784 785.6 795.2 805.6 808.8 803.2 805.6 808.8 806.4 805.6 799.2 790.4 780.8 777.6 773.6 770.4 773.6 774.4 773.6 771.2 771.2 776.8 782.4 788 800 812.8 819.2 822.4 839.2 850.4 860 872 884 896.8 910.4 927.2 948.8 972 991.2 1012.8 1028.8 1041.6 1058.4 1082.4 1104.8 1113.6 1107.2 1076.8 1040 1006.4 990.4 996 1007.2 1012.8 1000 989.6 1001.6 1009.6 1016.8 1024 1030.4 1037.6
13.6 12 11.2 11.2 9.6 8 4.8 5.6 9.6 12.8 18.4 18.4 19.2 19.2 19.2 19.2 19.2 20 20.8 22.4 24 24.8 26.4 28 30.4 34.4 40.8 48 57.6 70.4 84.8 99.2 114.4 130.4 144 159.2 175.2 189.6 202.4 217.6 233.6 248 261.6 276.8 292.8 305.6 314.4 323.2 333.6 343.2 352.8 364 376.8 389.6 404.8 420.8 435.2 450.4 463.2 476 486.4 495.2 503.2 510.4 517.6 525.6 536 549.6 556.8 559.2 560.8 562.4 564 563.2 563.2 561.6 560 561.6 564 567.2 574.4 589.6 599.2 601.6 600.8 599.2 596 591.2 588.8 588 590.4 593.6 594.4 590.4 578.4 562.4 548 537.6 538.4 538.4 532 520.8 517.6 531.2 542.4 545.6 543.2 528.8 510.4 498.4 491.2 484 475.2 465.6 457.6 462.4 475.2 488 499.2 508.8 520 532.8 546.4 559.2 572.8 587.2 603.2 613.6 620 619.2 615.2 610.4 604.8 601.6 600 600.8 604.8 609.6 609.6 608 609.6 620 627.2 632.8 639.2 639.2 637.6 640 648.8 662.4 671.2 673.6 676.8 684 691.2 692.8 688.8 691.2 687.2 685.6 692.8 698.4 708.8 727.2 736 747.2 760 764.8 770.4 774.4 780 785.6 786.4 784.8 784.8 783.2 776.8 767.2 757.6 755.2 753.6 754.4 760.8 779.2 802.4 824 848 845.6 811.2 801.6 821.6 839.2 842.4 835.2 830.4 830.4 828 825.6 820.8 812.8 802.4 792.8 784.8 780.8 785.6 786.4 784 780 776 780.8 788.8 795.2 810.4 824.8 832.8 832.8 845.6 858.4 869.6 881.6 892 904 918.4 936.8 957.6 982.4 1008.8 1030.4 1042.4 1048 1065.6 1080 1085.6 1100.8 1108.8 1099.2 1077.6 1044 1013.6 1012 1019.2 1028 1024.8 1007.2 1015.2 1024 1030.4 1035.2 1041.6 1048.8
14.4 12.8 12 11.2 10.4 8.8 5.6 5.6 8.8 12 16 17.6 18.4 19.2 19.2 19.2 19.2 20 20.8 21.6 23.2 24.8 26.4 27.2 30.4 34.4 39.2 46.4 55.2 68 80.8 92.8 108 125.6 138.4 151.2 166.4 183.2 198.4 214.4 231.2 246.4 262.4 278.4 294.4 308.8 320.8 331.2 340.8 349.6 360.8 372.8 382.4 392.8 404.8 420.8 435.2 449.6 462.4 476 487.2 496.8 505.6 512 518.4 527.2 538.4 551.2 562.4 568.8 572 573.6 575.2 576 576 576 573.6 573.6 576 577.6 584 596 605.6 610.4 610.4 608.8 605.6 601.6 599.2 598.4 599.2 600.8 601.6 597.6 586.4 569.6 555.2 546.4 548 545.6 538.4 531.2 528.8 536 548 550.4 549.6 539.2 520.8 508 499.2 491.2 484 476.8 468 465.6 476 488.8 500 509.6 520.8 532 544.8 557.6 569.6 584 600.8 613.6 626.4 631.2 628.8 624 618.4 612.8 609.6 610.4 616 620.8 621.6 621.6 620.8 627.2 636.8 644.8 651.2 651.2 648 649.6 652 664 676.8 684.8 688.8 693.6 700 704.8 702.4 696.8 693.6 692 700.8 708.8 716 732 744.8 758.4 772.8 780 787.2 793.6 797.6 800.8 800.8 797.6 795.2 792 783.2 772.8 765.6 759.2 755.2 756.8 763.2 777.6 797.6 818.4 840 855.2 836.8 816.8 835.2 852 858.4 857.6 853.6 852 850.4 847.2 843.2 837.6 830.4 816.8 800.8 798.4 797.6 797.6 792.8 787.2 788 793.6 799.2 805.6 812 827.2 840.8 845.6 856.8 868 880 890.4 901.6 913.6 928.8 950.4 973.6 998.4 1020.8 1024.8 1026.4 1037.6 1052 1061.6 1072 1088.8 1093.6 1094.4 1096 1071.2 1040.8 1028.8 1034.4 1044 1054.4 1049.6 1044 1041.6 1045.6 1047.2 1059.2 1071.2
14.4 13.6 12.8 12 10.4 9.6 6.4 4.8 8.8 11.2 14.4 16 17.6 17.6 18.4 18.4 19.2 19.2 20 21.6 23.2 24.8 25.6 27.2 28.8 32.8 37.6 44.8 53.6 64.8 77.6 92 105.6 120.8 135.2 151.2 167.2 182.4 196 214.4 232 248 263.2 280 296 309.6 324.8 336.8 346.4 356 368 380 389.6 398.4 410.4 424 437.6 451.2 463.2 475.2 487.2 497.6 505.6 512.8 520 528.8 540 552.8 565.6 576 583.2 587.2 588.8 589.6 590.4 589.6 588 588 588 588 592 600.8 609.6 613.6 614.4 613.6 611.2 608 605.6 605.6 606.4 607.2 606.4 603.2 592 575.2 561.6 553.6 555.2 553.6 545.6 540 539.2 544 552.8 556.8 556 547.2 530.4 518.4 509.6 500 491.2 484.8 477.6 471.2 476 486.4 498.4 508.8 519.2 530.4 541.6 554.4 565.6 580 596 609.6 626.4 636 639.2 636 632 627.2 624 622.4 626.4 632 632.8 631.2 630.4 633.6 645.6 655.2 660 662.4 660 662.4 664.8 664 677.6 691.2 700 704 708 717.6 716 704.8 700 700.8 705.6 718.4 724.8 736.8 748.8 763.2 779.2 791.2 807.2 823.2 825.6 820.8 818.4 814.4 807.2 802.4 791.2 781.6 776 771.2 764.8 765.6 769.6 779.2 796 815.2 840 853.6 852.8 838.4 841.6 856 865.6 868 868.8 869.6 869.6 870.4 871.2 864 852 839.2 826.4 819.2 812.8 809.6 805.6 807.2 812 817.6 818.4 819.2 824.8 829.6 842.4 852 862.4 875.2 887.2 898.4 912.8 928 948 970.4 986.4 1004 1007.2 1008 1009.6 1022.4 1032.8 1048.8 1063.2 1068.8 1076 1069.6 1080 1079.2 1057.6 1049.6 1057.6 1067.2 1080 1090.4 1080 1071.2 1070.4 1069.6 1088.8 1100.8
15.2 14.4 13.6 12 11.2 9.6 7.2 4.8 8 10.4 12.8 14.4 16 16 16.8 17.6 17.6 18.4 20 21.6 23.2 24.8 25.6 27.2 28 32 36.8 44 53.6 64.8 76.8 91.2 104.8 119.2 134.4 150.4 165.6 180 193.6 210.4 229.6 245.6 262.4 279.2 296 310.4 326.4 339.2 348 358.4 371.2 382.4 392.8 403.2 416 429.6 441.6 452.8 463.2 474.4 486.4 496 504.8 512.8 521.6 530.4 541.6 555.2 568 578.4 588.8 598.4 603.2 604 604.8 604 602.4 600.8 598.4 596.8 598.4 604.8 610.4 612.8 613.6 615.2 614.4 611.2 610.4 610.4 611.2 612 610.4 606.4 596.8 580.8 568 562.4 562.4 561.6 555.2 551.2 551.2 555.2 561.6 567.2 565.6 554.4 540 526.4 518.4 508 499.2 494.4 488 480.8 478.4 484 496 507.2 518.4 528.8 536.8 548.8 560 574.4 590.4 604.8 622.4 636 644.8 646.4 643.2 637.6 633.6 632 634.4 640.8 644 640 637.6 640 652 663.2 671.2 676 674.4 676.8 680 677.6 680 691.2 704.8 714.4 720 728.8 732 716.8 709.6 710.4 710.4 724 732.8 744.8 758.4 768.8 780.8 800 827.2 845.6 852 850.4 841.6 833.6 824 819.2 802.4 792 787.2 782.4 780 779.2 780.8 787.2 801.6 820.8 840 853.6 856.8 856 848.8 856.8 867.2 872 876 880 888.8 900 901.6 900 888.8 868.8 849.6 840.8 831.2 825.6 829.6 830.4 835.2 840 840.8 836.8 839.2 840 845.6 854.4 864.8 879.2 896 915.2 929.6 948.8 968 976 986.4 992 986.4 985.6 992 1004.8 1016.8 1029.6 1040 1044 1053.6 1044 1050.4 1046.4 1054.4 1060.8 1074.4 1086.4 1105.6 1112 1103.2 1102.4 1101.6 1103.2 1116.8 1129.6
16 15.2 13.6 12.8 11.2 9.6 8 4.8 8 10.4 12 13.6 14.4 15.2 16 16.8 17.6 19.2 20 21.6 22.4 24 25.6 26.4 28 31.2 36 43.2 52.8 62.4 74.4 87.2 100 114.4 128.8 144.8 160 174.4 189.6 205.6 223.2 240.8 258.4 275.2 292.8 309.6 324.8 337.6 347.2 358.4 371.2 381.6 392 403.2 416.8 430.4 441.6 452.8 462.4 472.8 484.8 494.4 504 513.6 522.4 532 543.2 556 568.8 579.2 589.6 600.8 608.8 615.2 618.4 618.4 615.2 612 608.8 605.6 604.8 608.8 612 611.2 612.8 616 616 613.6 614.4 615.2 616 616 614.4 610.4 601.6 588 577.6 573.6 573.6 571.2 565.6 560.8 560.8 566.4 572 576.8 573.6 561.6 548 534.4 525.6 516.8 507.2 502.4 497.6 491.2 486.4 485.6 492 504.8 517.6 528.8 535.2 544 554.4 568 584 600 617.6 632.8 644.8 652.8 653.6 650.4 647.2 644 644 646.4 647.2 644.8 645.6 646.4 655.2 671.2 684.8 690.4 690.4 692 692.8 689.6 690.4 695.2 705.6 720.8 728 735.2 745.6 733.6 724.8 723.2 724 729.6 742.4 748 765.6 779.2 789.6 810.4 844.8 865.6 870.4 874.4 868.8 855.2 843.2 836 817.6 806.4 802.4 796.8 794.4 794.4 795.2 798.4 807.2 824.8 844 857.6 862.4 866.4 862.4 864 870.4 876.8 884.8 895.2 909.6 921.6 928.8 929.6 916 899.2 882.4 866.4 849.6 840.8 843.2 848.8 854.4 856.8 858.4 856.8 854.4 853.6 854.4 858.4 868.8 884.8 908.8 935.2 950.4 959.2 961.6 963.2 968 972.8 969.6 968 976.8 988 1000.8 1015.2 1018.4 1013.6 1022.4 1018.4 1021.6 1028.8 1044.8 1060 1074.4 1085.6 1093.6 1099.2 1100 1105.6 1106.4 1105.6 1115.2 1132.8
16.8 16 14.4 12.8 11.2 10.4 8.8 5.6 8 10.4 11.2 12.8 13.6 14.4 15.2 16.8 17.6 18.4 20 20.8 22.4 24 24.8 26.4 27.2 29.6 34.4 41.6 49.6 59.2 70.4 84 97.6 112 127.2 143.2 158.4 172 187.2 203.2 220.8 237.6 253.6 269.6 286.4 304 319.2 332.8 345.6 356 366.4 381.6 392 403.2 414.4 428.8 440 450.4 460.8 472 484 494.4 505.6 516 524.8 533.6 544.8 556 568 578.4 588.8 600 611.2 621.6 628.8 631.2 628 624 620.8 616 612.8 612.8 612.8 611.2 612.8 616 617.6 617.6 617.6 619.2 619.2 619.2 619.2 616 609.6 599.2 589.6 584 583.2 580.8 576.8 573.6 573.6 576.8 581.6 584.8 580.8 567.2 553.6 540.8 532.8 524.8 517.6 512 506.4 501.6 495.2 495.2 496 502.4 516 528.8 538.4 544.8 551.2 562.4 577.6 594.4 611.2 628 641.6 655.2 660 660 660.8 658.4 655.2 653.6 652 652 654.4 657.6 660.8 676.8 690.4 699.2 703.2 706.4 708 705.6 704.8 706.4 710.4 725.6 735.2 741.6 751.2 748.8 740 736 739.2 738.4 748 757.6 770.4 784.8 799.2 820 852 874.4 886.4 898.4 896 885.6 869.6 854.4 834.4 823.2 819.2 812.8 812 812 813.6 815.2 820.8 832 848 861.6 869.6 876.8 877.6 877.6 880.8 884.8 895.2 911.2 926.4 938.4 952 955.2 938.4 935.2 917.6 895.2 872.8 861.6 862.4 868 873.6 873.6 872.8 872.8 872.8 874.4 872.8 868.8 876 892 917.6 936.8 941.6 944 944.8 944 947.2 951.2 950.4 952.8 963.2 976 986.4 990.4 985.6 985.6 991.2 994.4 1007.2 1021.6 1036.8 1054.4 1069.6 1075.2 1073.6 1075.2 1077.6 1081.6 1080 1084 1104.8 1113.6
18.4 16.8 15.2 13.6 12 10.4 8.8 6.4 8 9.6 11.2 12.8 13.6 14.4 15.2 16 16.8 18.4 19.2 20.8 22.4 23.2 24.8 26.4 27.2 28.8 33.6 38.4 45.6 56.8 68.8 83.2 97.6 112 128 144 157.6 171.2 185.6 200 216 232 247.2 262.4 276.8 293.6 315.2 332.8 346.4 360 374.4 385.6 395.2 404.8 416 429.6 440 450.4 460 472.8 485.6 496.8 507.2 517.6 526.4 535.2 544.8 555.2 565.6 576 587.2 599.2 611.2 624 633.6 640.8 641.6 637.6 633.6 629.6 625.6 621.6 618.4 614.4 615.2 618.4 620.8 621.6 621.6 622.4 623.2 623.2 624 622.4 618.4 611.2 603.2 596.8 592.8 589.6 585.6 583.2 583.2 587.2 592 593.6 588 572.8 558.4 547.2 540 532.8 525.6 521.6 517.6 512.8 505.6 504 507.2 508 514.4 526.4 538.4 546.4 551.2 559.2 572.8 588 606.4 622.4 638.4 654.4 665.6 671.2 676 674.4 668.8 662.4 660 660.8 663.2 667.2 666.4 678.4 690.4 700.8 709.6 718.4 724 723.2 720 720.8 720.8 728 740.8 748 756 761.6 760.8 756 753.6 752 751.2 761.6 776.8 788.8 805.6 824.8 851.2 878.4 899.2 911.2 916 917.6 900 871.2 852 842.4 837.6 830.4 829.6 830.4 834.4 839.2 848.8 855.2 860 868 876 885.6 892 894.4 893.6 894.4 906.4 921.6 929.6 937.6 960 973.6 963.2 957.6 944.8 921.6 903.2 896 892.8 897.6 899.2 892 889.6 895.2 899.2 903.2 904 896 892 901.6 916.8 925.6 927.2 929.6 930.4 926.4 926.4 930.4 932 939.2 953.6 964 964.8 961.6 960 961.6 968.8 982.4 1000.8 1014.4 1031.2 1048.8 1060 1052 1048.8 1052 1053.6 1056.8 1060.8 1071.2 1083.2 1092
20 17.6 16 14.4 12.8 11.2 8.8 6.4 7.2 9.6 11.2 12 13.6 14.4 15.2 16 16.8 17.6 19.2 20 21.6 23.2 24.8 26.4 27.2 28.8 32.8 37.6 44.8 54.4 66.4 80 94.4 108.8 124 140 154.4 168 182.4 196 209.6 225.6 241.6 256.8 276 296.8 316 334.4 348 360.8 373.6 386.4 396 406.4 416.8 428.8 439.2 449.6 460 472.8 485.6 496 506.4 514.4 523.2 532 542.4 552 562.4 573.6 584.8 596.8 609.6 621.6 631.2 638.4 641.6 643.2 644 642.4 640 636.8 631.2 624 622.4 623.2 624 624.8 626.4 627.2 627.2 628 628.8 629.6 628 622.4 613.6 604.8 600 596.8 593.6 593.6 595.2 599.2 603.2 603.2 593.6 578.4 564 553.6 547.2 540.8 535.2 532.8 529.6 524.8 519.2 513.6 515.2 517.6 517.6 523.2 532.8 544 551.2 559.2 569.6 584 600 616 634.4 651.2 668 678.4 686.4 688.8 684.8 677.6 672.8 672 673.6 677.6 676.8 680.8 691.2 704 715.2 725.6 736.8 741.6 738.4 735.2 734.4 734.4 744.8 755.2 762.4 769.6 775.2 772 766.4 765.6 762.4 768 777.6 791.2 810.4 829.6 848.8 873.6 893.6 909.6 928 941.6 914.4 893.6 878.4 866.4 858.4 847.2 846.4 847.2 852.8 860.8 870.4 878.4 881.6 883.2 887.2 895.2 906.4 909.6 900 897.6 900.8 904 912 920.8 937.6 943.2 961.6 952.8 954.4 946.4 924.8 924.8 921.6 925.6 925.6 917.6 917.6 923.2 929.6 930.4 924 916.8 903.2 901.6 908 912 912.8 913.6 916.8 910.4 908.8 911.2 920 934.4 940 940.8 936 936.8 939.2 947.2 961.6 978.4 994.4 1011.2 1027.2 1044.8 1043.2 1034.4 1034.4 1033.6 1033.6 1034.4 1043.2 1048.8 1065.6 1076
21.6 18.4 16.8 15.2 13.6 11.2 9.6 7.2 7.2 9.6 11.2 12 13.6 14.4 15.2 16 16.8 17.6 19.2 20 21.6 23.2 24.8 25.6 27.2 28.8 33.6 38.4 46.4 56.8 66.4 78.4 92 104.8 118.4 134.4 149.6 164 179.2 190.4 208 227.2 244 260.8 279.2 297.6 315.2 333.6 346.4 357.6 369.6 382.4 394.4 404 415.2 428 437.6 447.2 457.6 470.4 481.6 492 500.8 508 516.8 527.2 537.6 548 558.4 569.6 580.8 592 604.8 616 623.2 630.4 635.2 640 646.4 651.2 651.2 649.6 644 637.6 633.6 632 632 632 632 632.8 632.8 633.6 635.2 636.8 636 632 620 611.2 606.4 604 601.6 602.4 607.2 612 615.2 612 600.8 585.6 571.2 560 552.8 548 546.4 544 540.8 537.6 531.2 524 524 528 528 529.6 531.2 538.4 550.4 559.2 568.8 580 594.4 610.4 628.8 644 660 677.6 692.8 702.4 702.4 696.8 690.4 686.4 685.6 687.2 687.2 686.4 694.4 711.2 723.2 729.6 745.6 757.6 762.4 754.4 748 747.2 751.2 760 769.6 776.8 787.2 792 784.8 780 776 773.6 781.6 792.8 814.4 836.8 857.6 880 897.6 910.4 928.8 947.2 939.2 923.2 911.2 893.6 876.8 864.8 862.4 864.8 872 881.6 892.8 903.2 904.8 904 907.2 909.6 914.4 909.6 897.6 888 884 885.6 892 900.8 919.2 932.8 938.4 936 944.8 944 936.8 940 937.6 937.6 940 943.2 934.4 930.4 937.6 933.6 912.8 903.2 894.4 888.8 892 893.6 892.8 900 902.4 893.6 888.8 895.2 912 924.8 917.6 917.6 916 916 928 940.8 957.6 972.8 992 1009.6 1022.4 1032 1027.2 1015.2 1020 1020 1018.4 1013.6 1022.4 1039.2 1058.4 1053.6
23.2 20.8 18.4 16.8 14.4 12 9.6 7.2 8 9.6 11.2 12 13.6 14.4 16 16.8 17.6 18.4 19.2 20.8 21.6 24 24.8 26.4 27.2 28.8 33.6 40 47.2 56 65.6 78.4 92.8 106.4 120 135.2 149.6 163.2 176.8 192.8 212 229.6 245.6 260 276.8 295.2 312.8 331.2 343.2 353.6 364 376.8 389.6 400.8 412 424 434.4 443.2 453.6 464 473.6 482.4 491.2 500.8 512 523.2 533.6 543.2 553.6 564.8 576.8 587.2 598.4 608 614.4 620.8 626.4 632.8 639.2 645.6 649.6 651.2 649.6 647.2 644.8 644 642.4 640.8 640 639.2 639.2 640 642.4 644 644.8 640 628.8 619.2 614.4 611.2 610.4 612.8 617.6 624 628 620.8 608 594.4 580.8 569.6 560.8 556 558.4 556.8 553.6 550.4 546.4 537.6 534.4 538.4 539.2 540.8 543.2 543.2 548.8 558.4 568 577.6 589.6 605.6 624.8 644.8 664.8 683.2 700 714.4 721.6 718.4 712 704 697.6 697.6 700 696.8 701.6 717.6 732 737.6 746.4 763.2 780.8 783.2 772.8 765.6 764 767.2 776.8 785.6 796.8 807.2 805.6 799.2 795.2 788 789.6 797.6 816 836 858.4 881.6 901.6 916 932.8 957.6 956 944.8 931.2 916 900 886.4 883.2 886.4 894.4 907.2 914.4 921.6 921.6 916.8 917.6 904.8 896.8 896.8 889.6 874.4 867.2 866.4 873.6 884 897.6 901.6 909.6 916 925.6 934.4 941.6 939.2 930.4 928.8 935.2 931.2 925.6 920 923.2 914.4 893.6 882.4 876 873.6 876 877.6 879.2 884 881.6 873.6 872.8 884.8 900 903.2 895.2 896.8 897.6 908 921.6 937.6 956 972 988 1000.8 1008 1003.2 998.4 996.8 1004.8 1006.4 1004.8 999.2 1014.4 1030.4 1040 1030.4
24.8 22.4 20 17.6 15.2 12.8 10.4 8 7.2 9.6 11.2 12 13.6 15.2 16.8 17.6 18.4 19.2 20 20.8 22.4 24 24.8 26.4 27.2 28.8 33.6 39.2 46.4 55.2 64 76 90.4 104.8 119.2 133.6 150.4 166.4 182.4 196.8 212.8 228 243.2 257.6 274.4 292 308.8 327.2 340 348.8 359.2 370.4 383.2 395.2 407.2 420 429.6 438.4 447.2 456 463.2 471.2 482.4 493.6 505.6 517.6 528.8 538.4 548.8 560 571.2 581.6 591.2 598.4 604 610.4 617.6 623.2 628.8 634.4 640 644 646.4 648 649.6 653.6 652.8 649.6 646.4 645.6 646.4 647.2 648.8 650.4 650.4 646.4 637.6 628.8 623.2 619.2 619.2 621.6 626.4 634.4 638.4 631.2 618.4 603.2 590.4 580 572 564.8 567.2 569.6 566.4 563.2 558.4 548 544.8 548 548 548 552 552.8 551.2 558.4 567.2 576 587.2 601.6 620 645.6 668 685.6 702.4 719.2 732.8 735.2 733.6 725.6 715.2 709.6 712 709.6 709.6 722.4 738.4 747.2 754.4 767.2 788.8 808 804 784.8 778.4 780.8 786.4 790.4 802.4 816.8 824.8 822.4 816.8 809.6 804 808 821.6 842.4 865.6 884 900.8 914.4 931.2 940 944.8 939.2 924.8 905.6 899.2 899.2 901.6 906.4 912 920.8 928.8 930.4 916.8 904.8 896 883.2 877.6 883.2 878.4 860.8 848 846.4 856.8 864 870.4 879.2 889.6 900 908 920.8 938.4 922.4 910.4 909.6 916.8 916.8 911.2 906.4 906.4 897.6 876.8 862.4 856.8 857.6 864 860 862.4 864.8 860 855.2 860 871.2 876.8 877.6 876.8 880 887.2 901.6 918.4 937.6 954.4 969.6 976 980 984 982.4 973.6 977.6 986.4 989.6 984 984 1001.6 1016 1023.2 1010.4
26.4 23.2 20.8 19.2 16.8 14.4 11.2 8.8 7.2 8.8 10.4 12 14.4 16 17.6 18.4 19.2 20 20.8 21.6 22.4 24 24.8 25.6 27.2 28 32 37.6 44.8 52.8 62.4 74.4 89.6 104 117.6 132.8 148.8 163.2 179.2 194.4 210.4 225.6 240 254.4 269.6 287.2 302.4 319.2 333.6 344 353.6 364 376 388.8 401.6 413.6 424.8 432 439.2 446.4 451.2 462.4 476 487.2 499.2 511.2 523.2 533.6 544 554.4 564.8 573.6 580.8 584.8 588.8 597.6 606.4 612.8 617.6 622.4 628 631.2 635.2 638.4 642.4 645.6 647.2 648 647.2 648.8 651.2 652.8 655.2 656.8 656.8 654.4 648 640.8 634.4 630.4 629.6 632 636.8 643.2 646.4 640 627.2 612 600 590.4 583.2 576 573.6 578.4 580 576.8 571.2 558.4 556 557.6 557.6 557.6 559.2 562.4 560 560.8 567.2 575.2 585.6 599.2 613.6 635.2 660 681.6 699.2 719.2 733.6 745.6 749.6 747.2 739.2 731.2 728 722.4 718.4 725.6 736.8 750.4 760.8 774.4 795.2 820.8 824 806.4 794.4 793.6 798.4 804.8 815.2 828 839.2 840.8 840.8 836 825.6 822.4 830.4 852 870.4 882.4 892.8 902.4 909.6 920 921.6 920.8 905.6 885.6 880 888 899.2 908.8 913.6 918.4 926.4 920.8 897.6 881.6 868.8 860 860 868 861.6 844.8 830.4 828 838.4 843.2 852.8 865.6 875.2 889.6 888.8 896 913.6 901.6 890.4 892 897.6 904.8 896.8 888.8 884 878.4 860 844.8 840 843.2 850.4 844 844.8 846.4 841.6 839.2 845.6 852 853.6 855.2 858.4 864 879.2 896.8 916 934.4 949.6 962.4 961.6 956.8 957.6 961.6 952 958.4 968 970.4 963.2 972 990.4 997.6 1001.6 993.6
27.2 24.8 22.4 20 17.6 15.2 12.8 10.4 8 8 10.4 12.8 15.2 16.8 18.4 19.2 20 20 20.8 22.4 23.2 24 24.8 25.6 27.2 28 31.2 36.8 43.2 51.2 60.8 72.8 88 103.2 118.4 133.6 148.8 163.2 178.4 192 207.2 222.4 236 249.6 264 280 296.8 310.4 326.4 339.2 348 357.6 368 380.8 393.6 406.4 416.8 423.2 427.2 431.2 442.4 455.2 468.8 480.8 491.2 504.8 517.6 528.8 537.6 548 554.4 562.4 568 568 572.8 584 593.6 600 604 608 612 615.2 618.4 624 629.6 633.6 636 637.6 640.8 646.4 652.8 656.8 660.8 663.2 664 662.4 658.4 652.8 647.2 643.2 642.4 644 648 652 653.6 648.8 636 620 608.8 600 592.8 586.4 581.6 583.2 588.8 589.6 582.4 570.4 569.6 569.6 570.4 568 566.4 568 567.2 565.6 568.8 576 585.6 597.6 611.2 634.4 656.8 673.6 692.8 715.2 733.6 750.4 761.6 764.8 760 754.4 745.6 735.2 728.8 732 738.4 752.8 766.4 781.6 801.6 827.2 840.8 829.6 815.2 808.8 808.8 816 828 841.6 855.2 858.4 860 846.4 839.2 834.4 834.4 849.6 864 871.2 878.4 886.4 892.8 900.8 901.6 897.6 878.4 857.6 861.6 872.8 881.6 888 889.6 900.8 902.4 897.6 880 856.8 844.8 840 843.2 852 844.8 829.6 815.2 809.6 816 824 837.6 856 876.8 877.6 870.4 884.8 890.4 880 872.8 874.4 882.4 890.4 881.6 868.8 861.6 856 846.4 832 823.2 828.8 838.4 833.6 828 828 824.8 824 832 834.4 834.4 835.2 841.6 856.8 878.4 896 912.8 929.6 943.2 951.2 948 938.4 933.6 937.6 933.6 940 948.8 951.2 948 968 970.4 972.8 978.4 977.6
28 25.6 23.2 20.8 19.2 16.8 14.4 11.2 8.8 8 10.4 15.2 16.8 17.6 19.2 20 20.8 20.8 22.4 22.4 23.2 24 24.8 25.6 26.4 28 30.4 36 42.4 49.6 58.4 71.2 85.6 100.8 116.8 132 146.4 160 175.2 189.6 202.4 216.8 229.6 242.4 259.2 275.2 291.2 306.4 320.8 334.4 343.2 351.2 361.6 372.8 385.6 397.6 406.4 410.4 412.8 423.2 436.8 447.2 458.4 470.4 482.4 497.6 511.2 523.2 530.4 535.2 540.8 548.8 552 552 560.8 570.4 578.4 583.2 587.2 591.2 594.4 596.8 601.6 606.4 612 617.6 621.6 625.6 630.4 641.6 651.2 657.6 664.8 671.2 672.8 671.2 668 664 659.2 656 655.2 655.2 657.6 660 660 656.8 645.6 629.6 618.4 609.6 601.6 595.2 590.4 588 593.6 598.4 592 584 582.4 580.8 578.4 576 572.8 571.2 571.2 572 574.4 579.2 588 598.4 611.2 627.2 647.2 668 691.2 715.2 732.8 752 767.2 778.4 780 774.4 762.4 748.8 741.6 741.6 752 761.6 773.6 789.6 809.6 836.8 852.8 853.6 841.6 834.4 830.4 832.8 841.6 855.2 862.4 863.2 853.6 834.4 832.8 826.4 824 836.8 849.6 855.2 864.8 873.6 879.2 887.2 881.6 868.8 850.4 838.4 848 855.2 863.2 864.8 868 876 874.4 872.8 864 840.8 825.6 819.2 827.2 836.8 832 816.8 800.8 792.8 796 805.6 819.2 850.4 868 856 852 856.8 860 861.6 856.8 856.8 867.2 874.4 867.2 852.8 843.2 836 820.8 810.4 804 816 828 824 810.4 809.6 806.4 808.8 816 817.6 815.2 821.6 839.2 858.4 876.8 894.4 911.2 926.4 933.6 932.8 932 922.4 912.8 912 909.6 918.4 930.4 928.8 932 947.2 948 952.8 959.2 960.8
28.8 25.6 23.2 21.6 20 17.6 15.2 12 9.6 8 9.6 18.4 18.4 18.4 20 20.8 21.6 21.6 23.2 23.2 24 24.8 25.6 25.6 26.4 27.2 28.8 33.6 39.2 46.4 56 68 82.4 97.6 112.8 127.2 141.6 155.2 169.6 184.8 196.8 209.6 225.6 239.2 254.4 271.2 287.2 300.8 314.4 328 336.8 344.8 354.4 367.2 378.4 388.8 395.2 397.6 404.8 416.8 427.2 436.8 448 461.6 478.4 492.8 504 512.8 516.8 519.2 527.2 532.8 534.4 538.4 548.8 557.6 563.2 566.4 570.4 576 578.4 580 586.4 592 596 600.8 605.6 612 622.4 635.2 648.8 657.6 668 675.2 678.4 679.2 677.6 674.4 671.2 667.2 664.8 664.8 666.4 668 668.8 666.4 657.6 644 632 622.4 613.6 605.6 600.8 597.6 597.6 603.2 601.6 596 594.4 591.2 586.4 582.4 578.4 576 574.4 576 578.4 583.2 591.2 600 612 626.4 644 666.4 685.6 707.2 729.6 748.8 766.4 782.4 792 793.6 783.2 766.4 753.6 752.8 756.8 771.2 782.4 795.2 814.4 840.8 860.8 872 870.4 865.6 859.2 854.4 856.8 857.6 843.2 842.4 832.8 815.2 810.4 804.8 809.6 820 830.4 840.8 852 860 869.6 868.8 854.4 837.6 823.2 821.6 832.8 836 845.6 841.6 851.2 853.6 852 848.8 835.2 811.2 805.6 802.4 808.8 817.6 817.6 804 788.8 778.4 780 794.4 812.8 832 844.8 836 829.6 833.6 841.6 845.6 843.2 843.2 851.2 854.4 850.4 840.8 828 810.4 797.6 791.2 788.8 807.2 818.4 806.4 792.8 790.4 789.6 797.6 800.8 800 804.8 820.8 838.4 856.8 872.8 890.4 907.2 923.2 926.4 915.2 916.8 907.2 896.8 895.2 892.8 900.8 908.8 909.6 919.2 930.4 928 932.8 937.6 943.2
29.6 26.4 24 21.6 20 18.4 16 12.8 10.4 8.8 8 14.4 19.2 19.2 20.8 21.6 22.4 23.2 24 24 24 24.8 25.6 26.4 26.4 27.2 28.8 32.8 37.6 44 53.6 64.8 79.2 95.2 109.6 123.2 138.4 152.8 168 182.4 195.2 206.4 220 234.4 248.8 264 280 294.4 306.4 320 328 336.8 347.2 360 370.4 378.4 382.4 388 396.8 407.2 418.4 432 446.4 460.8 476 486.4 492.8 498.4 502.4 504 512.8 516.8 517.6 526.4 537.6 544.8 548 549.6 555.2 559.2 561.6 564 571.2 577.6 581.6 585.6 592 602.4 615.2 629.6 645.6 656 667.2 676.8 683.2 687.2 688 685.6 683.2 680 677.6 675.2 675.2 676 676.8 675.2 669.6 661.6 651.2 639.2 627.2 616.8 611.2 607.2 604.8 606.4 611.2 608.8 608 604.8 597.6 589.6 584.8 580.8 579.2 580 581.6 586.4 594.4 603.2 614.4 628.8 644 663.2 680.8 702.4 723.2 743.2 762.4 780 796 809.6 803.2 788 770.4 767.2 766.4 778.4 788.8 798.4 816 844.8 868.8 887.2 894.4 894.4 889.6 864 855.2 843.2 820.8 820.8 808.8 793.6 788 786.4 796 804 811.2 825.6 836.8 844 852 841.6 825.6 809.6 799.2 803.2 812 822.4 825.6 820 831.2 839.2 826.4 817.6 802.4 790.4 788 784.8 788.8 798.4 801.6 792.8 779.2 762.4 761.6 778.4 792.8 811.2 825.6 819.2 807.2 812.8 825.6 831.2 827.2 830.4 840.8 842.4 836 832 812 789.6 777.6 772 775.2 789.6 792.8 784.8 775.2 772 778.4 787.2 785.6 788 802.4 820.8 834.4 849.6 868 887.2 904 922.4 911.2 902.4 904.8 893.6 885.6 879.2 878.4 884.8 888.8 896.8 910.4 913.6 910.4 913.6 920 930.4
30.4 26.4 24 22.4 20.8 19.2 16.8 13.6 12 10.4 8.8 8.8 19.2 20 20.8 21.6 23.2 24 24.8 24.8 24.8 24.8 25.6 26.4 27.2 28 28.8 32.8 36.8 44 52.8 64 78.4 92.8 107.2 120.8 136.8 150.4 165.6 180 192 202.4 213.6 228.8 243.2 256.8 272.8 286.4 297.6 307.2 317.6 329.6 341.6 352 361.6 366.4 372 379.2 390.4 403.2 417.6 433.6 446.4 457.6 468 474.4 480 484 486.4 491.2 498.4 500.8 504 516 525.6 531.2 532 537.6 541.6 543.2 544.8 549.6 555.2 561.6 566.4 572.8 584 596.8 611.2 625.6 640 653.6 664 676 685.6 693.6 697.6 697.6 696 692 688 685.6 683.2 682.4 682.4 683.2 681.6 677.6 670.4 660 644 631.2 623.2 618.4 614.4 612.8 617.6 620 620 616 606.4 597.6 590.4 586.4 584 584.8 587.2 591.2 598.4 608 619.2 632 644.8 660.8 680 696.8 716 736.8 758.4 778.4 798.4 815.2 820 813.6 799.2 784.8 780 785.6 795.2 805.6 820 844 871.2 892 904.8 898.4 873.6 846.4 840 822.4 804.8 804.8 785.6 775.2 769.6 772.8 783.2 788 793.6 803.2 814.4 829.6 828 814.4 797.6 785.6 782.4 789.6 802.4 810.4 802.4 800 813.6 814.4 799.2 790.4 781.6 769.6 768 765.6 771.2 783.2 789.6 784.8 769.6 751.2 742.4 766.4 789.6 810.4 824.8 812.8 785.6 794.4 815.2 818.4 809.6 818.4 820.8 823.2 820 822.4 803.2 784 765.6 756 759.2 764 765.6 764.8 758.4 759.2 768.8 772 772 785.6 800.8 812 825.6 845.6 863.2 883.2 896 898.4 884.8 885.6 884.8 877.6 876 864 864.8 871.2 876 894.4 899.2 896.8 894.4 896.8 912.8 926.4
31.2 26.4 24 22.4 20.8 19.2 16.8 15.2 13.6 11.2 9.6 8.8 19.2 20 20.8 23.2 24.8 25.6 25.6 25.6 25.6 25.6 26.4 26.4 27.2 28 29.6 33.6 36.8 44 52.8 62.4 76 89.6 103.2 117.6 132.8 146.4 160.8 176 188 198.4 208.8 221.6 236.8 249.6 262.4 274.4 282.4 294.4 308 321.6 332.8 343.2 351.2 357.6 365.6 378.4 389.6 402.4 418.4 431.2 440.8 448 454.4 460.8 466.4 469.6 471.2 480 484.8 485.6 492 505.6 513.6 516 517.6 525.6 528 527.2 530.4 535.2 541.6 545.6 553.6 565.6 578.4 591.2 606.4 620.8 633.6 648 659.2 671.2 684 696 704 709.6 709.6 705.6 700 695.2 692 689.6 689.6 690.4 691.2 688.8 684 673.6 659.2 646.4 639.2 632.8 627.2 622.4 624 627.2 628 623.2 614.4 605.6 596.8 592 590.4 591.2 594.4 597.6 604 613.6 624 634.4 645.6 660.8 676 693.6 712 732 754.4 776.8 800 816 830.4 835.2 828.8 811.2 793.6 795.2 803.2 815.2 831.2 853.6 864 883.2 900 872 835.2 816.8 820.8 800 786.4 791.2 766.4 757.6 752 757.6 764 768.8 777.6 789.6 803.2 808.8 797.6 780.8 770.4 764.8 768.8 780 794.4 797.6 785.6 781.6 794.4 782.4 770.4 762.4 759.2 751.2 750.4 749.6 757.6 771.2 779.2 777.6 762.4 742.4 728 754.4 793.6 816.8 829.6 806.4 776 779.2 800.8 800.8 794.4 804 798.4 799.2 805.6 802.4 790.4 768.8 748 738.4 741.6 744 747.2 748 742.4 746.4 753.6 754.4 767.2 782.4 791.2 801.6 818.4 832 853.6 870.4 879.2 876.8 864 864.8 862.4 860 860.8 849.6 850.4 857.6 871.2 885.6 884 877.6 877.6 891.2 908.8 926.4
30.4 26.4 24 22.4 20.8 19.2 19.2 17.6 15.2 12.8 10.4 10.4 18.4 20 20.8 24 27.2 27.2 27.2 26.4 26.4 26.4 27.2 27.2 28 28.8 31.2 34.4 37.6 44 52 60.8 72 84.8 98.4 112 127.2 142.4 157.6 172.8 185.6 195.2 203.2 214.4 228 239.2 249.6 257.6 269.6 281.6 296.8 309.6 320.8 335.2 346.4 355.2 364.8 375.2 386.4 400 415.2 424.8 430.4 434.4 440 446.4 452 454.4 457.6 468 471.2 471.2 480.8 491.2 497.6 499.2 504.8 512 512.8 512 516.8 523.2 529.6 536.8 548 560 572 586.4 600 614.4 626.4 640 652.8 664.8 680 695.2 707.2 718.4 720.8 716.8 711.2 705.6 701.6 698.4 696.8 696.8 697.6 697.6 695.2 687.2 675.2 664 658.4 651.2 640 632 632 633.6 634.4 630.4 621.6 612.8 604.8 599.2 598.4 600 602.4 606.4 612 620 628.8 636 647.2 660.8 675.2 692 709.6 728 750.4 771.2 789.6 813.6 832.8 849.6 863.2 856.8 817.6 811.2 812.8 824.8 841.6 852 848.8 868 870.4 828.8 800 794.4 796 772.8 767.2 765.6 752 742.4 736.8 742.4 748 755.2 768.8 782.4 788.8 779.2 766.4 752 744.8 744.8 755.2 770.4 780 780 772.8 760.8 774.4 752.8 743.2 740 737.6 732.8 732 734.4 744 755.2 763.2 768 755.2 735.2 712.8 736.8 770.4 793.6 817.6 796.8 759.2 757.6 781.6 779.2 784 780.8 773.6 780 787.2 783.2 774.4 751.2 727.2 719.2 721.6 720.8 726.4 731.2 728 730.4 733.6 750.4 764 771.2 778.4 792.8 805.6 824 839.2 848 859.2 860.8 848.8 844.8 844 847.2 849.6 836 836 850.4 868 864.8 861.6 856 862.4 888.8 912 915.2
28.8 25.6 24 22.4 21.6 20.8 20 19.2 16.8 14.4 11.2 10.4 17.6 20 20.8 24.8 27.2 28 28 27.2 27.2 27.2 28 28 28.8 30.4 32.8 35.2 38.4 43.2 50.4 58.4 68 81.6 95.2 109.6 127.2 140.8 153.6 168.8 180 188 195.2 205.6 215.2 223.2 232.8 246.4 261.6 276 291.2 310.4 325.6 336 344.8 352 359.2 368 380.8 395.2 407.2 412.8 416.8 420.8 425.6 432.8 439.2 440 444 454.4 456.8 457.6 470.4 478.4 481.6 483.2 492 497.6 497.6 499.2 504.8 512.8 520 530.4 541.6 553.6 566.4 579.2 591.2 606.4 621.6 635.2 648.8 662.4 678.4 693.6 708 723.2 731.2 728 721.6 716.8 712 707.2 703.2 703.2 704 705.6 704.8 700 692.8 684.8 678.4 668.8 656 644.8 641.6 641.6 640.8 636.8 628.8 620 613.6 610.4 609.6 609.6 612 616.8 623.2 632 638.4 641.6 648.8 660.8 673.6 691.2 707.2 724 744.8 765.6 784.8 805.6 828 850.4 868 868 846.4 833.6 830.4 840 844 832.8 831.2 844.8 825.6 792 774.4 778.4 768.8 744.8 748 743.2 732.8 724 721.6 726.4 732.8 747.2 763.2 768.8 764 755.2 743.2 732.8 725.6 729.6 740.8 753.6 760.8 759.2 757.6 745.6 742.4 724.8 720.8 719.2 716 710.4 714.4 716.8 728 735.2 747.2 753.6 744.8 724 688 716 747.2 755.2 787.2 783.2 737.6 748.8 764.8 756.8 767.2 756.8 747.2 756.8 761.6 764.8 748.8 732 710.4 703.2 703.2 702.4 708 713.6 713.6 716.8 732 748 754.4 757.6 768 782.4 800 814.4 822.4 828.8 837.6 838.4 831.2 825.6 826.4 833.6 831.2 818.4 823.2 840.8 852.8 846.4 837.6 834.4 849.6 869.6 889.6 894.4
26.4 25.6 24.8 24 22.4 21.6 20.8 20 18.4 16 12 9.6 13.6 18.4 20.8 23.2 26.4 28 28.8 28 28 28 28.8 28.8 29.6 31.2 33.6 36 37.6 41.6 47.2 56 67.2 79.2 93.6 109.6 123.2 135.2 146.4 158.4 168.8 176 184.8 194.4 204 212 228.8 248 264 280 298.4 316.8 326.4 335.2 341.6 348 354.4 363.2 375.2 388.8 396.8 401.6 405.6 409.6 413.6 420 426.4 427.2 432.8 441.6 442.4 448.8 458.4 464 466.4 471.2 479.2 482.4 483.2 487.2 495.2 504.8 514.4 526.4 539.2 552.8 565.6 579.2 591.2 606.4 621.6 635.2 648.8 663.2 678.4 692 706.4 721.6 733.6 738.4 734.4 728 721.6 716 712 710.4 710.4 712 712 710.4 706.4 701.6 695.2 683.2 668.8 656.8 652.8 651.2 648 646.4 639.2 629.6 624 620.8 619.2 620 623.2 628.8 634.4 644 648 649.6 654.4 662.4 673.6 689.6 705.6 720.8 740.8 762.4 781.6 800.8 821.6 841.6 852.8 859.2 860.8 853.6 848.8 855.2 834.4 811.2 810.4 814.4 784.8 761.6 753.6 756 744 727.2 732 724 712.8 706.4 705.6 710.4 726.4 741.6 749.6 753.6 745.6 734.4 726.4 716 708 720 728.8 737.6 740.8 733.6 723.2 720.8 719.2 706.4 700.8 698.4 694.4 692.8 702.4 700 705.6 717.6 732.8 740 733.6 711.2 676 698.4 723.2 738.4 775.2 764.8 724 729.6 743.2 739.2 744 728 719.2 732 745.6 741.6 721.6 707.2 692.8 684.8 681.6 686.4 695.2 700 701.6 716.8 733.6 739.2 739.2 749.6 764 779.2 789.6 797.6 804.8 815.2 820 818.4 812.8 806.4 808.8 820 820 803.2 802.4 816.8 824 820 816 820.8 837.6 853.6 868 876.8
27.2 26.4 26.4 25.6 24.8 23.2 22.4 20.8 19.2 16.8 13.6 11.2 11.2 15.2 18.4 20 23.2 26.4 28 28.8 28.8 29.6 29.6 30.4 31.2 32 34.4 36 37.6 41.6 46.4 53.6 64.8 75.2 88.8 104 116 124.8 133.6 145.6 154.4 160 171.2 185.6 199.2 216 233.6 249.6 264.8 279.2 296 310.4 320.8 329.6 337.6 344.8 352 360 369.6 380 386.4 390.4 394.4 398.4 402.4 408 412.8 414.4 422.4 428 430.4 439.2 447.2 450.4 453.6 460.8 466.4 469.6 472 480 492 504.8 514.4 526.4 540.8 556 568 580.8 593.6 608.8 622.4 635.2 647.2 660 672.8 687.2 702.4 716.8 730.4 741.6 745.6 740.8 732.8 725.6 720.8 719.2 720 721.6 723.2 721.6 717.6 711.2 703.2 691.2 679.2 669.6 665.6 662.4 656 654.4 653.6 645.6 637.6 632 628.8 632 636.8 641.6 647.2 653.6 659.2 660 662.4 667.2 676.8 691.2 706.4 722.4 743.2 764.8 781.6 798.4 816 828.8 835.2 844 853.6 858.4 859.2 853.6 820.8 790.4 786.4 782.4 752.8 735.2 737.6 732.8 712.8 706.4 712 705.6 695.2 688.8 691.2 702.4 716 728 734.4 736.8 728 719.2 710.4 699.2 694.4 706.4 711.2 718.4 716.8 706.4 699.2 702.4 705.6 694.4 684.8 681.6 676.8 679.2 693.6 691.2 690.4 704 724 729.6 726.4 700.8 663.2 673.6 700 733.6 765.6 752 712.8 709.6 718.4 720 718.4 700.8 697.6 714.4 726.4 713.6 694.4 677.6 667.2 660.8 656.8 666.4 681.6 688 701.6 722.4 728.8 723.2 727.2 742.4 753.6 762.4 771.2 778.4 786.4 796 800.8 804 796 789.6 796 809.6 800 787.2 778.4 793.6 803.2 803.2 800.8 812.8 828.8 841.6 854.4 860
28 27.2 28 28 27.2 25.6 24 22.4 20 18.4 15.2 12.8 10.4 10.4 15.2 16.8 19.2 22.4 25.6 28 28.8 28.8 29.6 30.4 31.2 33.6 35.2 36 38.4 42.4 47.2 55.2 64 74.4 88 100 108.8 116 128 140 150.4 158.4 168.8 183.2 196 211.2 227.2 242.4 256.8 270.4 285.6 297.6 311.2 324 335.2 344 350.4 356.8 364 369.6 374.4 378.4 382.4 386.4 391.2 396 400 403.2 410.4 414.4 421.6 430.4 435.2 437.6 444 450.4 452.8 456 465.6 477.6 490.4 504 513.6 525.6 540.8 553.6 566.4 580 593.6 608 620.8 632 642.4 653.6 664 680 696 710.4 724.8 740 750.4 752.8 746.4 738.4 733.6 731.2 732 732.8 734.4 732 727.2 720 711.2 701.6 689.6 680.8 676.8 672 665.6 662.4 666.4 663.2 657.6 652 645.6 644 648 653.6 659.2 664.8 668 669.6 671.2 676 684.8 697.6 711.2 728 748.8 767.2 782.4 796 808 813.6 820 828.8 838.4 850.4 853.6 824 798.4 768 764.8 760 739.2 720 719.2 710.4 692 688.8 693.6 688 679.2 672.8 680.8 691.2 701.6 710.4 715.2 718.4 711.2 701.6 693.6 684.8 679.2 688 691.2 695.2 695.2 691.2 686.4 688.8 692.8 683.2 667.2 658.4 656 666.4 683.2 678.4 672.8 694.4 710.4 719.2 715.2 691.2 649.6 648.8 678.4 716 742.4 732 700 691.2 695.2 694.4 692 680.8 681.6 695.2 700 684.8 668 652 643.2 636 637.6 649.6 668.8 683.2 699.2 711.2 710.4 706.4 716.8 729.6 737.6 744.8 753.6 760.8 770.4 778.4 782.4 790.4 782.4 772.8 782.4 788.8 784 771.2 760 774.4 787.2 788 792 808.8 822.4 832.8 838.4 843.2
30.4 30.4 30.4 30.4 28.8 27.2 25.6 23.2 21.6 19.2 16 13.6 10.4 10.4 12.8 16 17.6 19.2 20.8 24 26.4 27.2 28 29.6 32 33.6 35.2 36.8 39.2 43.2 48 55.2 63.2 73.6 88 96.8 100.8 112 128.8 142.4 156 163.2 171.2 181.6 192 204 219.2 232 246.4 260 272.8 288.8 305.6 320.8 333.6 342.4 347.2 352 356.8 360.8 364 366.4 370.4 374.4 379.2 384 388 394.4 400 405.6 414.4 420.8 423.2 427.2 436 440 442.4 450.4 463.2 476 487.2 500 512.8 525.6 539.2 551.2 563.2 576 589.6 603.2 613.6 623.2 631.2 644 659.2 676 692 704 719.2 735.2 749.6 760 760 751.2 746.4 745.6 746.4 746.4 745.6 742.4 737.6 730.4 722.4 713.6 703.2 693.6 685.6 680 674.4 670.4 672.8 675.2 672.8 670.4 665.6 660.8 660.8 665.6 669.6 673.6 676 677.6 680.8 686.4 696 708 720 736.8 755.2 771.2 783.2 792.8 796 798.4 804 815.2 827.2 841.6 833.6 804 767.2 746.4 744 736.8 721.6 700.8 693.6 688.8 672.8 672 676 673.6 664.8 659.2 668 675.2 684.8 692.8 695.2 696.8 690.4 684 677.6 671.2 664.8 669.6 672 676 677.6 679.2 677.6 668.8 677.6 671.2 655.2 640.8 640 656 676 664 656.8 679.2 698.4 705.6 700.8 679.2 639.2 627.2 647.2 680 706.4 721.6 695.2 672 672.8 664.8 664.8 660 668 680 676 660 646.4 632.8 624 617.6 624.8 644 661.6 676.8 688.8 694.4 690.4 689.6 704 713.6 720.8 728 738.4 745.6 757.6 763.2 762.4 771.2 766.4 755.2 764 767.2 765.6 754.4 745.6 756.8 766.4 772.8 787.2 803.2 810.4 815.2 818.4 823.2
35.2 34.4 34.4 32.8 31.2 29.6 27.2 24.8 22.4 20 16.8 13.6 11.2 10.4 12.8 14.4 16 16.8 17.6 20 24 26.4 28 30.4 32 33.6 35.2 37.6 40 44 48 54.4 63.2 75.2 86.4 89.6 96 109.6 124.8 137.6 152 164.8 174.4 183.2 189.6 197.6 211.2 224.8 239.2 254.4 268 284 301.6 318.4 329.6 336.8 340.8 344.8 348 351.2 353.6 356 358.4 362.4 367.2 372 377.6 385.6 392 398.4 404 408 411.2 419.2 425.6 429.6 438.4 451.2 463.2 475.2 486.4 500.8 513.6 524.8 536 546.4 558.4 570.4 581.6 592.8 601.6 609.6 626.4 641.6 657.6 671.2 684 698.4 713.6 728.8 744.8 756.8 764 763.2 759.2 758.4 760 760.8 758.4 754.4 749.6 743.2 734.4 725.6 716 706.4 696 686.4 680 676.8 676.8 680.8 684 684 680.8 677.6 676.8 677.6 679.2 682.4 684.8 687.2 692 698.4 708 718.4 731.2 747.2 761.6 772.8 780.8 783.2 783.2 784.8 792 804 818.4 825.6 813.6 779.2 747.2 726.4 718.4 714.4 711.2 696 676 668.8 651.2 654.4 660.8 661.6 650.4 646.4 654.4 660 667.2 672 671.2 674.4 673.6 667.2 660.8 653.6 647.2 651.2 655.2 660 662.4 655.2 644.8 652.8 662.4 656 646.4 628.8 629.6 651.2 672.8 653.6 642.4 662.4 684.8 683.2 688.8 670.4 630.4 608.8 621.6 648 665.6 679.2 664 651.2 653.6 640.8 637.6 642.4 656 661.6 647.2 634.4 629.6 617.6 604.8 605.6 621.6 638.4 650.4 660.8 671.2 676 672 675.2 686.4 696.8 704 712.8 722.4 732 742.4 743.2 744.8 750.4 748 741.6 746.4 749.6 746.4 735.2 730.4 740.8 751.2 764.8 778.4 788 795.2 798.4 800.8 804.8
40 38.4 37.6 36 33.6 31.2 28.8 26.4 23.2 20 16.8 13.6 10.4 10.4 12 14.4 15.2 16.8 17.6 20 24 26.4 28.8 30.4 32 34.4 36 37.6 40.8 44.8 48.8 55.2 64.8 73.6 78.4 83.2 93.6 105.6 119.2 132 146.4 160 172.8 185.6 194.4 200 208.8 221.6 236 251.2 264 280.8 298.4 312 319.2 324 327.2 332 336.8 341.6 344.8 346.4 346.4 348.8 354.4 360 369.6 378.4 384.8 389.6 395.2 398.4 403.2 411.2 417.6 430.4 442.4 452.8 463.2 475.2 488 498.4 509.6 519.2 529.6 540 549.6 560 569.6 581.6 592 606.4 623.2 638.4 653.6 664.8 676 694.4 711.2 724.8 736.8 749.6 758.4 765.6 768 768 771.2 774.4 774.4 771.2 765.6 760.8 754.4 742.4 731.2 719.2 706.4 696.8 688.8 682.4 683.2 685.6 692 695.2 695.2 693.6 691.2 690.4 692.8 695.2 697.6 700.8 704.8 711.2 720 730.4 744 756.8 761.6 763.2 767.2 768.8 766.4 771.2 781.6 794.4 804 801.6 788.8 761.6 734.4 709.6 691.2 689.6 692 688.8 665.6 647.2 631.2 638.4 648.8 649.6 636.8 633.6 640.8 646.4 650.4 651.2 651.2 655.2 655.2 651.2 645.6 639.2 631.2 636.8 642.4 645.6 645.6 636.8 630.4 642.4 648.8 640 636 610.4 619.2 644.8 664 636 627.2 648 666.4 657.6 677.6 659.2 622.4 596 599.2 618.4 638.4 644 636 628.8 633.6 624 620 630.4 640 637.6 621.6 614.4 613.6 601.6 589.6 600 618.4 628 636.8 646.4 655.2 657.6 654.4 660.8 670.4 679.2 684 695.2 703.2 716 726.4 727.2 729.6 732.8 730.4 727.2 728 731.2 728 718.4 717.6 728.8 742.4 757.6 766.4 773.6 780 783.2 787.2 790.4
44 42.4 40.8 38.4 35.2 32.8 30.4 27.2 24 20.8 16.8 12.8 10.4 11.2 12 13.6 15.2 16.8 18.4 20.8 23.2 26.4 28.8 30.4 32 34.4 36 38.4 41.6 45.6 49.6 56 64 69.6 72.8 80.8 91.2 101.6 112.8 125.6 138.4 152 165.6 181.6 193.6 203.2 211.2 222.4 234.4 248.8 263.2 279.2 292.8 300 303.2 306.4 311.2 316.8 323.2 328.8 332.8 333.6 333.6 336.8 344.8 356 364.8 369.6 373.6 380.8 385.6 391.2 399.2 407.2 417.6 431.2 443.2 452.8 462.4 473.6 484 492.8 501.6 510.4 521.6 531.2 540 550.4 563.2 577.6 590.4 601.6 617.6 634.4 649.6 660 673.6 694.4 709.6 720 726.4 736.8 748 760 770.4 774.4 779.2 787.2 789.6 789.6 785.6 779.2 772 759.2 747.2 733.6 720 708 698.4 692.8 693.6 700.8 706.4 711.2 712.8 712 711.2 711.2 711.2 712.8 713.6 715.2 718.4 724.8 734.4 747.2 758.4 762.4 752 748 751.2 753.6 752 761.6 771.2 780.8 780.8 775.2 764.8 748 723.2 699.2 673.6 667.2 668.8 674.4 652 628 620 626.4 636 633.6 622.4 620 626.4 632 634.4 632 632.8 636.8 638.4 636 632.8 624.8 614.4 620 628 631.2 631.2 623.2 619.2 637.6 634.4 626.4 627.2 601.6 604 627.2 638.4 612 612.8 636.8 646.4 631.2 656 648.8 613.6 584.8 578.4 594.4 610.4 616 612.8 608.8 612.8 604.8 604 614.4 619.2 612 600.8 596 596.8 585.6 576 589.6 603.2 612.8 620.8 631.2 638.4 640.8 638.4 646.4 656 661.6 667.2 676.8 684 693.6 705.6 708 712 715.2 715.2 711.2 712 712.8 709.6 700.8 705.6 724.8 736 746.4 753.6 760 764.8 768 773.6 777.6
49.6 46.4 44 40.8 37.6 34.4 31.2 28.8 24.8 20.8 16.8 12 10.4 12 12.8 13.6 15.2 16.8 18.4 20.8 23.2 26.4 28.8 30.4 32 34.4 36 38.4 42.4 46.4 50.4 56 60.8 64.8 70.4 77.6 87.2 96 106.4 116.8 129.6 146.4 160.8 175.2 187.2 197.6 208.8 223.2 236 248 262.4 276 282.4 284 284.8 286.4 292.8 300.8 308.8 316 320 320.8 322.4 331.2 343.2 350.4 354.4 358.4 366.4 375.2 379.2 386.4 395.2 404.8 415.2 424.8 436 448 457.6 468 474.4 484 497.6 508 517.6 528 541.6 552 567.2 580.8 593.6 608 624 638.4 652 666.4 681.6 695.2 705.6 710.4 715.2 724.8 737.6 752.8 766.4 771.2 776 782.4 788.8 795.2 799.2 797.6 786.4 772.8 760.8 749.6 736 724 713.6 708.8 710.4 716 722.4 727.2 730.4 731.2 731.2 732 731.2 731.2 730.4 731.2 733.6 741.6 752.8 763.2 764 756 739.2 730.4 734.4 737.6 742.4 752 758.4 764 760 754.4 742.4 731.2 712 688.8 665.6 644 646.4 659.2 642.4 618.4 601.6 610.4 616.8 614.4 607.2 604 610.4 615.2 613.6 611.2 612.8 617.6 620.8 620.8 617.6 609.6 601.6 605.6 611.2 616 618.4 603.2 606.4 626.4 612.8 611.2 612.8 583.2 586.4 606.4 612 588.8 596 616 621.6 609.6 633.6 636 602.4 571.2 560.8 576 583.2 587.2 588.8 591.2 590.4 581.6 586.4 593.6 594.4 586.4 580 580 580 573.6 562.4 572 586.4 595.2 605.6 614.4 620.8 624 620.8 629.6 638.4 643.2 652 660 665.6 670.4 680 684 691.2 696 698.4 690.4 694.4 696 692 685.6 697.6 715.2 727.2 736 741.6 746.4 751.2 754.4 760 764
54.4 50.4 47.2 43.2 39.2 36 32.8 29.6 25.6 21.6 16.8 12 11.2 12 12.8 14.4 16 16.8 18.4 20 23.2 25.6 28.8 30.4 32 34.4 36 38.4 42.4 46.4 50.4 54.4 57.6 62.4 68.8 74.4 81.6 91.2 101.6 115.2 130.4 146.4 159.2 169.6 181.6 192.8 204.8 218.4 235.2 247.2 259.2 266.4 266.4 264.8 264.8 270.4 277.6 285.6 292.8 300 304.8 309.6 316 324.8 328.8 337.6 349.6 360 368 377.6 383.2 390.4 398.4 406.4 415.2 424 436 447.2 456 464 474.4 487.2 499.2 510.4 520 533.6 544 556 572.8 586.4 599.2 613.6 631.2 646.4 660.8 675.2 685.6 692 695.2 696 697.6 712 727.2 741.6 752.8 756 761.6 768 774.4 782.4 788.8 788.8 783.2 775.2 766.4 758.4 748.8 735.2 725.6 723.2 725.6 732.8 736.8 740.8 745.6 749.6 752 754.4 753.6 751.2 749.6 751.2 754.4 760.8 771.2 769.6 756 743.2 725.6 713.6 715.2 723.2 733.6 740 744.8 748 745.6 732 722.4 712 696 674.4 652.8 628.8 625.6 647.2 636.8 608 584 591.2 595.2 596 594.4 591.2 596 597.6 593.6 591.2 593.6 600 604.8 604.8 602.4 596 591.2 593.6 595.2 604.8 612.8 590.4 592.8 605.6 586.4 591.2 589.6 565.6 567.2 580.8 579.2 568 577.6 592.8 596.8 596 619.2 621.6 590.4 560 542.4 552 560 562.4 564.8 571.2 561.6 558.4 569.6 573.6 570.4 566.4 560.8 562.4 564 561.6 554.4 559.2 572 581.6 590.4 594.4 600.8 604 601.6 612 621.6 628 635.2 644 648 652 656 660 668.8 675.2 678.4 673.6 677.6 679.2 675.2 672 684 701.6 712.8 722.4 728 732.8 736.8 740.8 746.4 749.6
58.4 53.6 49.6 45.6 40.8 37.6 33.6 30.4 26.4 21.6 16.8 12.8 11.2 12 13.6 14.4 16.8 18.4 19.2 20.8 23.2 26.4 28.8 30.4 32 34.4 36 38.4 42.4 47.2 50.4 52.8 56 60 65.6 70.4 78.4 88 101.6 116 132 144.8 152 161.6 175.2 190.4 201.6 212.8 229.6 243.2 249.6 249.6 248.8 249.6 252 263.2 272 280.8 288 296 304.8 309.6 314.4 320 332 344.8 355.2 365.6 372.8 380 385.6 392.8 401.6 412.8 422.4 431.2 440 450.4 459.2 466.4 476.8 488.8 499.2 510.4 521.6 533.6 545.6 558.4 574.4 588 600.8 616 635.2 650.4 665.6 676 681.6 680 677.6 677.6 689.6 702.4 714.4 724 732.8 737.6 743.2 752 760 767.2 775.2 776 770.4 766.4 760.8 756 748 736.8 728.8 728 732.8 741.6 745.6 751.2 758.4 766.4 772.8 776.8 776 774.4 772 770.4 771.2 772 772 760 743.2 725.6 708 694.4 701.6 712 720.8 725.6 729.6 736 732.8 720.8 705.6 693.6 678.4 659.2 636.8 616 603.2 626.4 625.6 601.6 576.8 569.6 573.6 579.2 582.4 574.4 578.4 582.4 577.6 573.6 576.8 585.6 591.2 592 588.8 585.6 580 580.8 586.4 600 608 580.8 575.2 576 561.6 570.4 567.2 552.8 550.4 561.6 558.4 550.4 560.8 572 573.6 578.4 589.6 589.6 572 552.8 532 534.4 545.6 544 544.8 548.8 539.2 541.6 552 551.2 548 544.8 544.8 548 549.6 547.2 543.2 548 560 569.6 576.8 579.2 584.8 587.2 586.4 596 604 612.8 620.8 628 631.2 636 640 643.2 651.2 656.8 658.4 656 660.8 663.2 660.8 658.4 670.4 682.4 695.2 704 711.2 716.8 721.6 728 732.8 733.6
60.8 56 51.2 47.2 43.2 38.4 34.4 31.2 27.2 21.6 16.8 13.6 11.2 12 13.6 15.2 16.8 19.2 20.8 21.6 24.8 27.2 28.8 30.4 32 34.4 36 39.2 42.4 46.4 49.6 52 54.4 56.8 61.6 68.8 77.6 87.2 100 113.6 127.2 135.2 145.6 160.8 176 186.4 194.4 206.4 223.2 234.4 236 235.2 236.8 245.6 263.2 275.2 283.2 294.4 304.8 312 316.8 320 324.8 329.6 334.4 343.2 355.2 365.6 371.2 376 381.6 389.6 398.4 408.8 419.2 428 438.4 448 456.8 464.8 475.2 487.2 498.4 509.6 522.4 536 548 560.8 574.4 588 602.4 617.6 636 651.2 664.8 669.6 668 661.6 658.4 666.4 678.4 689.6 697.6 707.2 716 723.2 728.8 736.8 746.4 755.2 763.2 760.8 756 752 747.2 741.6 735.2 728.8 724 724.8 728.8 736 743.2 751.2 761.6 771.2 782.4 792 798.4 798.4 795.2 791.2 776.8 762.4 754.4 748 735.2 711.2 689.6 680.8 690.4 701.6 708 709.6 712.8 720 717.6 706.4 692.8 680 668.8 646.4 611.2 596 586.4 604 609.6 589.6 563.2 549.6 555.2 562.4 569.6 559.2 561.6 568 563.2 555.2 561.6 573.6 580 580 576.8 572.8 566.4 568.8 579.2 592 597.6 560.8 553.6 549.6 541.6 547.2 544 534.4 532.8 542.4 538.4 531.2 544.8 552 552 556.8 560.8 559.2 552 542.4 522.4 517.6 528 528.8 526.4 526.4 520 525.6 529.6 527.2 523.2 524.8 528.8 534.4 535.2 534.4 532 538.4 549.6 555.2 560 563.2 566.4 568.8 574.4 583.2 590.4 598.4 605.6 611.2 615.2 620 622.4 628.8 636.8 640.8 641.6 643.2 648 650.4 649.6 646.4 657.6 669.6 680 686.4 693.6 699.2 704.8 712.8 717.6 718.4
62.4 56.8 52.8 48.8 44 39.2 35.2 31.2 27.2 21.6 17.6 14.4 12 11.2 12.8 15.2 17.6 19.2 20.8 22.4 24.8 28 29.6 30.4 32 34.4 36.8 39.2 42.4 47.2 49.6 51.2 53.6 56 59.2 66.4 76 84.8 96 108 116.8 126.4 138.4 148.8 160 171.2 183.2 196.8 210.4 219.2 223.2 229.6 239.2 255.2 272.8 287.2 300 313.6 322.4 327.2 332 337.6 343.2 347.2 346.4 347.2 357.6 366.4 375.2 382.4 388 392.8 397.6 402.4 409.6 422.4 434.4 444 454.4 464 474.4 486.4 497.6 509.6 522.4 536 547.2 560 572 586.4 600.8 616.8 634.4 648.8 660.8 660 650.4 642.4 644 655.2 665.6 672.8 680.8 692 699.2 704 711.2 723.2 736 745.6 752 748.8 742.4 736.8 732 726.4 720.8 713.6 711.2 715.2 720.8 726.4 734.4 744.8 756.8 768 781.6 793.6 805.6 808.8 805.6 792 770.4 747.2 732 729.6 719.2 697.6 674.4 664 677.6 688.8 693.6 691.2 692.8 698.4 691.2 687.2 681.6 671.2 660.8 647.2 618.4 581.6 567.2 580 581.6 572 550.4 535.2 538.4 550.4 556 544 544 549.6 543.2 537.6 549.6 562.4 567.2 565.6 561.6 560 554.4 556 564.8 572 562.4 535.2 532.8 529.6 520.8 524 520 515.2 513.6 520.8 519.2 512 526.4 532.8 528 531.2 533.6 532.8 531.2 526.4 513.6 507.2 513.6 513.6 508 506.4 503.2 505.6 507.2 505.6 504.8 508 515.2 520.8 522.4 521.6 518.4 526.4 536 539.2 544 547.2 550.4 552 559.2 568 576 584.8 589.6 593.6 597.6 602.4 605.6 612.8 621.6 624.8 624 629.6 634.4 637.6 637.6 632.8 637.6 653.6 664.8 671.2 676 681.6 686.4 693.6 698.4 700.8
61.6 56.8 52.8 48.8 44.8 40 35.2 31.2 27.2 21.6 17.6 15.2 12.8 12 12.8 15.2 17.6 19.2 20.8 23.2 25.6 27.2 28.8 30.4 32 34.4 36 38.4 42.4 46.4 48.8 51.2 53.6 57.6 61.6 67.2 75.2 83.2 91.2 101.6 111.2 123.2 137.6 149.6 160.8 172 182.4 192.8 205.6 218.4 227.2 237.6 248.8 262.4 279.2 294.4 309.6 323.2 331.2 338.4 345.6 349.6 352 352.8 352.8 353.6 360.8 371.2 382.4 391.2 396.8 400.8 405.6 408.8 412.8 422.4 433.6 443.2 452.8 461.6 472 484 494.4 507.2 520 532.8 544 556 568.8 584 599.2 614.4 631.2 644 648 639.2 629.6 625.6 631.2 641.6 649.6 657.6 668 679.2 686.4 690.4 696 710.4 725.6 738.4 744 740.8 731.2 724.8 719.2 713.6 706.4 698.4 695.2 701.6 708 716 725.6 736.8 749.6 764.8 778.4 788.8 797.6 798.4 797.6 786.4 762.4 735.2 712 705.6 696 681.6 660 644 660.8 676.8 680 671.2 673.6 678.4 671.2 666.4 664.8 656.8 642.4 636.8 625.6 584 548 552 549.6 545.6 536 523.2 523.2 536.8 540.8 524.8 522.4 528 523.2 525.6 540.8 549.6 552 548.8 547.2 545.6 541.6 540.8 546.4 544.8 534.4 510.4 512 510.4 500.8 501.6 500 496.8 496 502.4 502.4 496.8 507.2 510.4 507.2 508 510.4 509.6 508 504.8 497.6 492.8 496.8 497.6 493.6 492 488.8 486.4 486.4 488.8 491.2 496 503.2 508 510.4 511.2 508 513.6 521.6 523.2 527.2 531.2 534.4 536 540.8 550.4 560 568 573.6 576.8 582.4 587.2 592 599.2 604.8 607.2 606.4 614.4 620 622.4 620.8 616 622.4 637.6 647.2 652.8 655.2 657.6 668 673.6 676.8 678.4
60 56.8 52 48.8 44 39.2 35.2 31.2 26.4 21.6 17.6 15.2 13.6 12 12 15.2 17.6 19.2 21.6 23.2 25.6 27.2 28.8 30.4 32 33.6 36 38.4 40.8 44.8 48 50.4 53.6 57.6 63.2 69.6 79.2 87.2 93.6 102.4 112 126.4 143.2 156 167.2 179.2 190.4 204.8 217.6 226.4 237.6 250.4 264 275.2 284.8 297.6 312.8 325.6 336 344.8 351.2 352.8 353.6 355.2 357.6 359.2 363.2 372 384 394.4 401.6 408 414.4 419.2 424 429.6 436.8 446.4 455.2 463.2 472 483.2 493.6 505.6 517.6 530.4 542.4 553.6 568 584 597.6 613.6 628 636.8 632 622.4 615.2 610.4 618.4 627.2 635.2 646.4 656.8 665.6 672.8 676 685.6 700.8 716 729.6 738.4 736 724.8 716 708 697.6 692 686.4 683.2 689.6 696.8 707.2 717.6 729.6 742.4 759.2 774.4 784 787.2 780.8 776.8 768.8 749.6 724 694.4 680 673.6 659.2 642.4 626.4 645.6 663.2 661.6 652.8 655.2 658.4 652 648 645.6 634.4 615.2 611.2 611.2 582.4 537.6 521.6 516 520.8 518.4 507.2 506.4 520.8 522.4 506.4 500 505.6 504 518.4 531.2 534.4 532 531.2 529.6 528 525.6 525.6 525.6 521.6 512.8 493.6 492.8 492.8 485.6 482.4 480 476 476.8 481.6 478.4 477.6 484.8 483.2 483.2 484 488.8 489.6 488 486.4 484 480 483.2 483.2 480.8 479.2 476 472.8 471.2 472.8 476 482.4 488.8 495.2 499.2 500 499.2 503.2 509.6 510.4 512.8 516.8 520 521.6 524.8 532.8 540.8 548.8 555.2 558.4 564.8 570.4 579.2 585.6 589.6 591.2 592 597.6 603.2 604.8 602.4 602.4 610.4 621.6 628 630.4 631.2 639.2 649.6 655.2 659.2 659.2
56 54.4 51.2 48 43.2 38.4 34.4 30.4 25.6 20.8 17.6 15.2 13.6 12 12.8 16 17.6 19.2 21.6 23.2 24.8 27.2 28 29.6 31.2 32.8 35.2 36.8 39.2 43.2 46.4 49.6 52.8 56.8 62.4 69.6 79.2 88 94.4 102.4 111.2 123.2 138.4 152 164 177.6 190.4 203.2 217.6 230.4 243.2 257.6 272 283.2 292 301.6 313.6 324.8 335.2 346.4 352 353.6 355.2 356.8 360 364 368 372 380.8 392.8 402.4 411.2 419.2 426.4 431.2 436 442.4 450.4 459.2 466.4 476.8 487.2 497.6 512 524 536 547.2 557.6 572 586.4 600 613.6 624 624 617.6 609.6 600 597.6 608 614.4 624.8 636.8 645.6 652 657.6 664 676.8 692.8 707.2 720.8 729.6 728.8 720 708.8 695.2 686.4 679.2 675.2 672 679.2 688 700.8 712 724.8 737.6 754.4 768.8 779.2 777.6 761.6 750.4 744.8 733.6 709.6 682.4 664 652.8 637.6 622.4 612.8 629.6 646.4 644 635.2 636 636.8 636.8 633.6 625.6 611.2 587.2 589.6 588.8 569.6 532.8 502.4 492.8 504 500.8 489.6 494.4 504.8 505.6 493.6 480.8 484.8 493.6 506.4 512 513.6 511.2 511.2 512 510.4 508.8 506.4 504 498.4 488.8 476.8 475.2 474.4 468 464.8 463.2 459.2 458.4 461.6 458.4 458.4 460.8 459.2 461.6 464.8 468.8 471.2 470.4 470.4 469.6 469.6 471.2 471.2 469.6 467.2 464.8 462.4 461.6 463.2 465.6 470.4 476.8 484 488.8 490.4 490.4 492.8 496.8 499.2 501.6 505.6 508 509.6 511.2 517.6 524 531.2 536.8 541.6 549.6 558.4 563.2 568.8 573.6 575.2 579.2 584 586.4 588.8 588 588.8 599.2 605.6 610.4 612 613.6 623.2 632 637.6 642.4 642.4
50.4 49.6 48.8 45.6 41.6 37.6 33.6 29.6 24.8 20.8 17.6 15.2 12.8 12 13.6 16.8 18.4 20 21.6 23.2 24.8 26.4 28 29.6 30.4 32.8 34.4 36 37.6 40.8 44 47.2 49.6 53.6 60 68.8 78.4 87.2 94.4 101.6 109.6 120 133.6 149.6 162.4 176 190.4 205.6 220.8 232.8 246.4 260 274.4 286.4 295.2 304.8 316 325.6 335.2 346.4 352.8 355.2 356.8 358.4 361.6 368 373.6 379.2 383.2 391.2 400 409.6 420 429.6 435.2 442.4 449.6 456.8 463.2 469.6 480.8 491.2 502.4 516.8 530.4 544 552.8 564 577.6 589.6 602.4 613.6 615.2 612 603.2 594.4 586.4 586.4 594.4 600.8 616 626.4 632.8 638.4 645.6 656.8 671.2 686.4 700.8 714.4 724 722.4 715.2 704 690.4 678.4 668 661.6 660.8 671.2 680.8 694.4 707.2 720 734.4 751.2 764.8 773.6 766.4 746.4 736 725.6 715.2 695.2 672 648.8 634.4 618.4 603.2 594.4 614.4 636 631.2 621.6 617.6 616 618.4 616 604 585.6 563.2 560 566.4 549.6 524 492.8 476.8 485.6 480.8 475.2 480.8 484 481.6 476.8 464.8 469.6 481.6 488.8 491.2 491.2 490.4 492 492.8 492.8 491.2 488 484 479.2 470.4 460.8 458.4 456.8 451.2 449.6 447.2 444 444 443.2 438.4 437.6 439.2 440.8 443.2 448.8 452.8 454.4 454.4 455.2 456.8 460 461.6 460.8 459.2 457.6 456 454.4 454.4 455.2 458.4 463.2 468 474.4 480 483.2 482.4 484 485.6 488 491.2 495.2 497.6 498.4 498.4 503.2 509.6 516 520.8 527.2 537.6 543.2 546.4 551.2 556 558.4 564 568 570.4 574.4 575.2 579.2 585.6 589.6 593.6 596 600.8 609.6 616 620.8 626.4 629.6
49.6 44.8 44 42.4 39.2 36 32.8 28.8 24.8 20 16.8 15.2 12.8 12.8 14.4 16.8 19.2 20 21.6 22.4 24.8 25.6 27.2 28 29.6 31.2 33.6 35.2 36.8 38.4 40.8 43.2 45.6 51.2 59.2 68.8 80 88 94.4 101.6 110.4 120 134.4 149.6 163.2 176.8 192.8 207.2 222.4 235.2 248 262.4 275.2 287.2 296.8 306.4 318.4 327.2 336 347.2 353.6 357.6 359.2 360.8 365.6 372.8 380 387.2 392.8 398.4 404.8 410.4 418.4 427.2 436 447.2 456.8 462.4 468 476 484 495.2 508 521.6 536 548 556.8 568.8 581.6 593.6 603.2 606.4 602.4 595.2 588 580.8 572 574.4 584.8 595.2 606.4 615.2 618.4 623.2 637.6 651.2 666.4 682.4 696.8 709.6 718.4 716.8 708.8 699.2 685.6 673.6 659.2 649.6 651.2 660.8 672.8 688 702.4 716.8 732 748 761.6 768.8 756 736.8 723.2 707.2 692 680 668 646.4 623.2 605.6 588.8 573.6 596.8 608.8 610.4 608.8 600.8 598.4 598.4 594.4 577.6 553.6 535.2 538.4 544.8 531.2 512 475.2 454.4 461.6 460.8 458.4 461.6 464 459.2 458.4 452 456.8 465.6 468.8 470.4 469.6 470.4 474.4 476.8 476 475.2 472 468.8 464 456 446.4 441.6 440 436 432 430.4 427.2 426.4 426.4 424 421.6 422.4 425.6 428 433.6 437.6 439.2 440 442.4 446.4 450.4 452 451.2 450.4 449.6 448.8 448.8 448.8 448.8 452.8 457.6 461.6 467.2 473.6 477.6 476.8 476.8 477.6 478.4 480.8 484.8 488 488 487.2 489.6 495.2 501.6 508 514.4 521.6 525.6 529.6 536 539.2 542.4 548.8 552.8 556 560.8 563.2 567.2 570.4 576 580 582.4 588.8 595.2 600 606.4 610.4 618.4
49.6 44 40.8 39.2 37.6 34.4 31.2 28 24 20 16.8 14.4 12.8 12.8 14.4 16.8 19.2 20 21.6 22.4 24 25.6 26.4 28 28.8 30.4 32 33.6 35.2 36.8 37.6 39.2 44 49.6 58.4 68 79.2 88 93.6 100.8 109.6 119.2 133.6 148.8 162.4 176.8 192.8 207.2 222.4 235.2 248.8 263.2 276 288 297.6 307.2 320 328.8 336 347.2 354.4 360 363.2 365.6 370.4 376 384.8 393.6 400.8 407.2 413.6 418.4 422.4 428 437.6 448 457.6 464.8 473.6 481.6 488.8 500 512 524 539.2 550.4 558.4 571.2 584.8 595.2 598.4 594.4 586.4 580 576 568.8 556.8 562.4 576.8 589.6 597.6 602.4 606.4 616.8 632.8 648 665.6 682.4 696 708 714.4 709.6 699.2 688.8 679.2 671.2 656.8 640.8 643.2 652 664.8 680.8 697.6 712 729.6 744.8 758.4 764 752 732.8 714.4 691.2 668.8 658.4 650.4 633.6 623.2 604 577.6 559.2 564.8 579.2 591.2 597.6 588.8 583.2 579.2 572 554.4 529.6 513.6 522.4 526.4 512.8 483.2 449.6 434.4 440.8 440 442.4 442.4 440.8 437.6 439.2 436.8 442.4 448 448 446.4 447.2 450.4 454.4 453.6 455.2 460 458.4 453.6 450.4 440.8 431.2 424.8 424 420 416 413.6 412.8 412.8 412.8 412 411.2 410.4 413.6 416.8 420.8 424 426.4 428 431.2 436.8 441.6 442.4 442.4 442.4 442.4 443.2 443.2 444 445.6 448.8 453.6 457.6 463.2 468 471.2 471.2 471.2 472 472.8 474.4 476.8 480 480.8 479.2 480.8 484.8 490.4 496.8 501.6 505.6 509.6 515.2 520.8 524.8 528.8 534.4 539.2 544 548.8 552 556.8 559.2 564 566.4 570.4 576.8 581.6 587.2 594.4 599.2 605.6
49.6 44 39.2 36.8 35.2 32.8 29.6 26.4 23.2 20 16.8 14.4 12.8 12.8 14.4 16.8 18.4 20 20.8 22.4 24 24.8 26.4 27.2 28 29.6 31.2 32 33.6 35.2 36 37.6 41.6 47.2 56 65.6 76 84.8 92.8 100 108 118.4 132 145.6 160 174.4 191.2 206.4 221.6 235.2 249.6 264 276.8 288 298.4 308.8 320 328.8 336.8 346.4 355.2 361.6 365.6 370.4 376 380.8 389.6 397.6 405.6 412.8 420 425.6 431.2 436.8 443.2 449.6 457.6 467.2 477.6 486.4 495.2 505.6 516.8 527.2 540.8 551.2 559.2 572 584.8 592.8 590.4 581.6 572.8 568 563.2 552 544 554.4 571.2 581.6 586.4 589.6 601.6 616 632.8 648.8 667.2 684 696.8 707.2 712 702.4 689.6 676 668.8 664.8 653.6 634.4 635.2 646.4 658.4 675.2 693.6 709.6 727.2 742.4 754.4 760.8 751.2 732.8 712.8 688 660 636.8 620 607.2 608.8 600 565.6 543.2 546.4 559.2 576 587.2 581.6 568.8 560.8 550.4 536 515.2 496.8 500.8 501.6 486.4 452 427.2 416 420 417.6 420.8 415.2 415.2 418.4 419.2 420 424.8 426.4 425.6 422.4 422.4 424.8 426.4 425.6 430.4 439.2 443.2 439.2 433.6 422.4 415.2 408.8 406.4 403.2 401.6 400.8 400.8 402.4 403.2 402.4 402.4 401.6 403.2 406.4 410.4 414.4 417.6 420.8 424.8 429.6 433.6 435.2 436 436.8 437.6 438.4 439.2 440 443.2 446.4 451.2 456 460 464 465.6 466.4 466.4 467.2 468 468.8 471.2 472.8 474.4 474.4 475.2 478.4 482.4 487.2 490.4 494.4 499.2 504.8 508.8 512.8 516.8 522.4 528.8 534.4 540 543.2 544.8 548 552 555.2 560 564.8 571.2 578.4 583.2 589.6 593.6
51.2 44.8 39.2 34.4 32 30.4 28 24.8 21.6 18.4 14.4 12.8 12.8 12.8 14.4 16.8 18.4 20 20.8 21.6 23.2 24 25.6 26.4 27.2 28.8 29.6 31.2 32.8 33.6 35.2 36.8 39.2 45.6 53.6 64 74.4 84 92 99.2 108 118.4 132.8 146.4 159.2 172 188 204 220.8 235.2 248.8 264.8 277.6 288.8 299.2 309.6 320 328.8 336.8 346.4 356 362.4 367.2 373.6 380.8 385.6 392.8 399.2 408 416.8 424 430.4 437.6 443.2 448.8 454.4 461.6 468.8 480 489.6 498.4 508.8 519.2 529.6 541.6 552 558.4 571.2 581.6 585.6 581.6 571.2 560 550.4 544.8 536 532.8 545.6 563.2 569.6 575.2 587.2 604 620.8 636.8 652.8 670.4 685.6 698.4 705.6 705.6 696 682.4 665.6 655.2 651.2 637.6 621.6 628.8 646.4 656.8 672.8 691.2 708.8 724.8 739.2 750.4 756.8 745.6 729.6 712.8 686.4 657.6 627.2 600.8 587.2 592 582.4 553.6 526.4 526.4 538.4 556 566.4 572.8 562.4 545.6 530.4 520.8 505.6 482.4 476.8 470.4 449.6 428 409.6 401.6 396.8 394.4 393.6 390.4 395.2 400.8 401.6 403.2 408 408 404 400.8 403.2 406.4 406.4 404 409.6 420 427.2 424 413.6 404 398.4 395.2 393.6 392.8 391.2 391.2 392.8 394.4 395.2 395.2 395.2 396 397.6 400 403.2 408 412 415.2 418.4 422.4 426.4 428.8 430.4 431.2 432.8 434.4 435.2 437.6 441.6 444.8 448.8 452.8 456.8 460 461.6 462.4 461.6 462.4 463.2 464 465.6 467.2 468.8 470.4 472 474.4 477.6 480.8 483.2 487.2 492.8 497.6 502.4 506.4 510.4 515.2 521.6 528 532.8 535.2 536 537.6 540.8 543.2 548 555.2 563.2 570.4 575.2 580 584
52.8 45.6 40.8 35.2 30.4 28 24.8 21.6 18.4 14.4 12.8 12.8 13.6 13.6 13.6 16.8 19.2 20 20.8 21.6 22.4 24 24.8 25.6 26.4 27.2 28 29.6 31.2 32.8 34.4 36 37.6 44.8 53.6 63.2 72.8 83.2 92 99.2 107.2 118.4 132.8 148.8 162.4 174.4 188 202.4 218.4 233.6 248.8 265.6 277.6 289.6 300 309.6 320 328 336 346.4 356 363.2 369.6 376.8 384 389.6 395.2 402.4 410.4 419.2 426.4 434.4 441.6 448 453.6 460 467.2 472.8 480.8 491.2 500.8 510.4 520 530.4 542.4 552 558.4 568.8 576 577.6 572.8 561.6 547.2 536 529.6 521.6 523.2 538.4 549.6 556 572 589.6 607.2 626.4 641.6 656 672.8 687.2 697.6 701.6 699.2 693.6 678.4 647.2 639.2 636.8 619.2 606.4 621.6 640.8 656 672 689.6 707.2 720.8 736 747.2 752 738.4 723.2 706.4 679.2 648 614.4 587.2 572 572 556 540.8 516 504.8 516 530.4 547.2 558.4 555.2 537.6 519.2 501.6 478.4 464 452.8 444 421.6 401.6 399.2 386.4 374.4 369.6 368.8 369.6 380.8 384.8 384 386.4 387.2 387.2 381.6 379.2 384 385.6 385.6 384.8 393.6 404.8 404.8 401.6 394.4 387.2 384 384 384 383.2 383.2 384 386.4 388.8 389.6 390.4 391.2 392 393.6 395.2 399.2 404 408 411.2 413.6 416.8 419.2 422.4 425.6 427.2 429.6 431.2 433.6 436.8 439.2 442.4 445.6 448.8 452.8 456 457.6 458.4 459.2 458.4 457.6 459.2 460.8 463.2 464.8 467.2 468.8 471.2 473.6 476 478.4 482.4 488 492.8 497.6 501.6 505.6 511.2 516.8 522.4 527.2 528.8 528.8 529.6 531.2 533.6 539.2 547.2 555.2 562.4 568 572 577.6
55.2 48 43.2 38.4 31.2 25.6 20.8 18.4 15.2 13.6 13.6 13.6 13.6 13.6 14.4 17.6 19.2 20 20.8 21.6 22.4 23.2 24 24.8 25.6 26.4 27.2 28.8 30.4 32 34.4 36 37.6 44 52.8 61.6 71.2 81.6 90.4 97.6 106.4 117.6 132 149.6 164.8 177.6 192 204 217.6 232.8 248 264.8 277.6 289.6 300 309.6 319.2 328 335.2 344.8 355.2 364 371.2 379.2 385.6 392 398.4 404.8 412.8 420.8 428.8 436.8 444 451.2 458.4 464.8 472 479.2 484.8 492.8 501.6 511.2 520 531.2 542.4 551.2 558.4 564.8 569.6 568 560.8 549.6 534.4 523.2 516 506.4 515.2 527.2 538.4 552.8 572.8 589.6 606.4 624.8 643.2 656 673.6 687.2 692.8 685.6 691.2 690.4 668 628 624.8 616 598.4 594.4 612.8 636.8 655.2 669.6 684.8 703.2 716.8 731.2 743.2 746.4 735.2 722.4 700 669.6 638.4 606.4 576 554.4 541.6 528.8 523.2 503.2 490.4 498.4 516.8 535.2 544 536.8 521.6 512 496 468.8 448 435.2 424 405.6 384.8 380.8 373.6 362.4 355.2 354.4 360 368.8 368.8 364 368.8 368 364.8 361.6 363.2 366.4 366.4 367.2 369.6 378.4 381.6 376.8 379.2 380.8 376 373.6 374.4 375.2 375.2 376 377.6 380 382.4 384 385.6 386.4 388 390.4 392 395.2 400 404 407.2 409.6 412 414.4 416.8 420 423.2 426.4 428.8 431.2 433.6 436.8 439.2 441.6 444.8 447.2 450.4 452 453.6 455.2 455.2 452.8 453.6 456 459.2 460.8 463.2 465.6 467.2 469.6 472 474.4 478.4 484 489.6 495.2 500 504 508 512.8 517.6 521.6 524 524 524 524.8 527.2 532.8 540.8 549.6 556.8 561.6 564.8 570.4
58.4 52 47.2 40.8 33.6 26.4 20 16.8 14.4 13.6 13.6 13.6 14.4 14.4 14.4 18.4 19.2 20 20 20.8 21.6 22.4 23.2 24 25.6 26.4 27.2 28 29.6 32 33.6 35.2 37.6 42.4 50.4 59.2 68 79.2 89.6 96.8 105.6 116.8 131.2 148.8 164.8 178.4 192 205.6 218.4 232.8 247.2 264 277.6 288.8 299.2 308.8 318.4 327.2 335.2 344 355.2 364 372 380 387.2 393.6 400 406.4 414.4 421.6 430.4 438.4 446.4 454.4 462.4 470.4 478.4 486.4 491.2 496 504.8 514.4 523.2 533.6 543.2 551.2 557.6 563.2 565.6 558.4 548 534.4 524 512.8 501.6 492.8 506.4 522.4 537.6 553.6 572 588 600.8 617.6 638.4 654.4 671.2 683.2 677.6 665.6 680.8 670.4 628.8 599.2 603.2 589.6 576 588.8 611.2 632.8 648.8 660.8 676 692.8 708.8 723.2 736.8 740 729.6 713.6 686.4 655.2 628 603.2 574.4 547.2 522.4 506.4 496.8 482.4 474.4 488.8 506.4 523.2 519.2 508.8 498.4 497.6 491.2 471.2 446.4 424.8 402.4 377.6 364 363.2 361.6 355.2 346.4 343.2 348 355.2 352.8 348.8 350.4 348 344.8 345.6 349.6 351.2 350.4 355.2 360 363.2 363.2 363.2 368.8 371.2 368 365.6 366.4 368 368.8 369.6 371.2 373.6 376.8 379.2 380.8 382.4 384 385.6 388 390.4 394.4 398.4 401.6 404.8 408 412 414.4 416.8 420.8 423.2 426.4 428.8 430.4 432.8 435.2 436.8 439.2 441.6 444 446.4 447.2 448 448 452 456 456 457.6 458.4 461.6 466.4 469.6 472 474.4 476.8 478.4 481.6 486.4 493.6 498.4 500 504 508 513.6 517.6 520 520.8 521.6 522.4 524.8 530.4 537.6 545.6 552 556 559.2 564
62.4 55.2 49.6 42.4 35.2 26.4 20.8 16.8 15.2 13.6 13.6 14.4 14.4 14.4 15.2 16 17.6 18.4 19.2 20 20.8 21.6 22.4 24 24.8 25.6 26.4 28 29.6 31.2 33.6 35.2 36.8 40 48 56.8 68 77.6 88.8 97.6 106.4 114.4 128.8 145.6 162.4 176.8 189.6 204 218.4 233.6 248 263.2 276.8 288.8 299.2 308 317.6 325.6 334.4 343.2 353.6 363.2 372 380.8 388 394.4 400.8 408 415.2 423.2 431.2 440 448.8 457.6 467.2 476 484.8 492.8 496.8 501.6 509.6 518.4 527.2 536 543.2 549.6 555.2 559.2 558.4 547.2 533.6 521.6 508.8 496.8 484.8 482.4 500 520.8 541.6 556 568 581.6 592.8 610.4 633.6 650.4 666.4 668.8 656 648 656.8 625.6 593.6 584 578.4 566.4 563.2 584.8 612.8 625.6 635.2 648 664 684 699.2 714.4 724.8 723.2 708.8 691.2 664.8 635.2 613.6 595.2 575.2 545.6 519.2 497.6 478.4 464.8 460.8 475.2 491.2 493.6 484.8 479.2 475.2 476 469.6 449.6 428.8 412 381.6 356.8 348 347.2 346.4 343.2 340 332 333.6 340 338.4 337.6 337.6 335.2 332 332 335.2 337.6 339.2 346.4 351.2 352.8 352.8 354.4 360 360.8 359.2 358.4 360 361.6 362.4 364 366.4 368 370.4 373.6 376.8 379.2 379.2 381.6 387.2 389.6 392 393.6 396.8 400 404 408.8 411.2 413.6 416.8 420 421.6 424 426.4 428 429.6 432.8 434.4 436 438.4 440 443.2 445.6 451.2 459.2 462.4 462.4 464 467.2 470.4 475.2 479.2 482.4 484 484.8 484.8 484.8 485.6 488.8 492.8 497.6 502.4 505.6 509.6 514.4 516.8 518.4 519.2 520.8 524 528 534.4 541.6 546.4 550.4 555.2 558.4
64.8 56.8 50.4 43.2 34.4 26.4 20 17.6 15.2 14.4 13.6 14.4 15.2 15.2 16 16 16.8 17.6 18.4 19.2 20 20.8 21.6 23.2 24.8 25.6 26.4 27.2 28.8 31.2 32.8 34.4 36.8 40 48 56.8 66.4 76 87.2 96.8 107.2 116 129.6 144 160 176 189.6 204 217.6 232.8 247.2 262.4 276.8 288.8 298.4 307.2 316 324.8 332.8 342.4 352.8 362.4 371.2 380.8 388 394.4 401.6 408.8 416 424.8 433.6 442.4 452.8 463.2 473.6 482.4 490.4 498.4 502.4 506.4 513.6 520.8 529.6 536.8 541.6 545.6 550.4 550.4 547.2 535.2 520 509.6 493.6 481.6 471.2 472.8 492 519.2 538.4 548.8 559.2 572 585.6 608.8 630.4 646.4 652 644 628 634.4 624 592.8 576 563.2 554.4 548.8 553.6 573.6 599.2 610.4 620 640 656.8 672.8 688 701.6 699.2 680 665.6 661.6 636 615.2 599.2 588.8 574.4 552 527.2 502.4 472.8 452.8 446.4 456 464.8 463.2 457.6 454.4 451.2 449.6 431.2 417.6 407.2 393.6 365.6 343.2 336.8 334.4 333.6 331.2 327.2 325.6 322.4 325.6 326.4 324.8 328 324.8 320.8 321.6 324 324.8 327.2 332.8 339.2 342.4 344 346.4 349.6 350.4 350.4 350.4 354.4 357.6 360 361.6 364 368 372 376 379.2 381.6 385.6 389.6 394.4 398.4 400.8 402.4 404.8 405.6 405.6 406.4 408 412 415.2 418.4 419.2 421.6 425.6 428 429.6 431.2 432.8 435.2 438.4 440.8 445.6 452 460 465.6 468.8 469.6 470.4 475.2 480 484.8 488.8 492.8 493.6 494.4 494.4 493.6 493.6 495.2 500 504.8 508 508.8 508.8 511.2 513.6 516 518.4 520.8 523.2 525.6 530.4 537.6 541.6 545.6 549.6 552.8
65.6 57.6 49.6 42.4 33.6 25.6 19.2 16.8 16 15.2 14.4 14.4 16 16.8 16.8 16.8 17.6 17.6 18.4 18.4 19.2 20 21.6 22.4 24 25.6 26.4 27.2 28.8 31.2 32.8 34.4 36.8 39.2 48 56.8 64.8 74.4 84 93.6 104 115.2 128.8 144 160 173.6 188 204.8 219.2 233.6 247.2 261.6 276 288 297.6 305.6 314.4 323.2 332 341.6 352 360.8 370.4 379.2 387.2 394.4 401.6 409.6 417.6 426.4 436 445.6 457.6 468.8 479.2 486.4 496 500.8 505.6 510.4 516 521.6 525.6 528.8 532 535.2 538.4 537.6 532.8 524 508 492 477.6 467.2 457.6 468 487.2 506.4 520.8 538.4 554.4 572 588 607.2 629.6 638.4 629.6 615.2 604.8 620 608.8 577.6 555.2 540.8 536 534.4 548 569.6 584.8 596.8 612 632.8 656.8 670.4 680.8 684.8 656.8 624.8 608 619.2 604 589.6 569.6 565.6 560.8 548 525.6 504 477.6 446.4 430.4 436 441.6 438.4 432.8 429.6 424 415.2 403.2 394.4 383.2 368.8 344.8 327.2 325.6 323.2 321.6 320.8 318.4 316.8 313.6 314.4 315.2 311.2 310.4 312 315.2 316 317.6 320 325.6 328 330.4 334.4 336 338.4 342.4 346.4 353.6 357.6 360.8 363.2 364.8 368.8 373.6 378.4 383.2 387.2 392 396 398.4 400.8 404 408 412 415.2 416.8 416.8 416 416 417.6 419.2 421.6 423.2 424.8 429.6 431.2 432 433.6 435.2 437.6 440.8 443.2 448 453.6 460 466.4 472 474.4 476.8 477.6 480.8 487.2 493.6 501.6 507.2 509.6 509.6 508.8 507.2 505.6 506.4 510.4 514.4 516.8 518.4 516.8 516 517.6 520 523.2 525.6 528.8 530.4 531.2 535.2 536.8 540.8 544 547.2
66.4 56.8 49.6 41.6 32.8 24.8 18.4 16.8 16 15.2 14.4 15.2 16.8 17.6 17.6 18.4 18.4 19.2 18.4 18.4 19.2 20 20.8 22.4 24 24.8 26.4 27.2 28.8 30.4 32.8 34.4 36.8 40 51.2 61.6 68 74.4 82.4 92.8 104 114.4 127.2 141.6 158.4 173.6 188.8 206.4 220 233.6 246.4 260.8 276 286.4 296.8 304.8 312.8 321.6 330.4 340 350.4 358.4 368 377.6 386.4 393.6 401.6 409.6 418.4 427.2 438.4 449.6 464 472.8 480.8 488.8 496.8 501.6 505.6 511.2 516 519.2 512.8 513.6 514.4 518.4 522.4 522.4 517.6 508.8 496 479.2 464 452 444.8 461.6 479.2 493.6 512.8 535.2 554.4 572 588 607.2 627.2 626.4 612.8 595.2 590.4 607.2 596 568 538.4 522.4 518.4 523.2 540.8 557.6 572.8 591.2 605.6 620 644.8 656 677.6 669.6 626.4 592.8 573.6 576.8 569.6 556.8 550.4 551.2 547.2 525.6 506.4 492 467.2 436.8 416 417.6 422.4 416.8 413.6 407.2 401.6 394.4 384 374.4 362.4 345.6 328 315.2 313.6 311.2 310.4 309.6 308 308 305.6 305.6 304 302.4 308.8 314.4 319.2 324 328.8 333.6 335.2 336 337.6 338.4 340.8 342.4 346.4 353.6 361.6 368 372 373.6 375.2 380 385.6 392 397.6 402.4 406.4 409.6 410.4 411.2 414.4 418.4 423.2 427.2 428.8 427.2 427.2 428 428.8 429.6 431.2 432 432 434.4 436 436.8 439.2 441.6 443.2 447.2 452 457.6 463.2 467.2 473.6 478.4 481.6 487.2 489.6 492 497.6 504.8 512.8 520 523.2 524.8 524 522.4 520.8 519.2 520.8 524 527.2 527.2 526.4 524.8 526.4 528.8 529.6 530.4 535.2 539.2 537.6 534.4 532.8 536.8 540 543.2
64.8 56 48 40 32 24 18.4 16.8 15.2 14.4 15.2 16 17.6 18.4 18.4 19.2 19.2 19.2 19.2 19.2 19.2 20 20.8 22.4 24 24.8 26.4 27.2 28.8 30.4 32.8 34.4 36.8 40.8 52.8 65.6 72 77.6 84.8 93.6 104 114.4 128 142.4 158.4 173.6 190.4 209.6 223.2 235.2 247.2 260.8 275.2 285.6 295.2 304 312 320 328.8 338.4 347.2 356 364.8 375.2 384 392.8 400.8 409.6 419.2 428.8 440.8 454.4 467.2 474.4 480 488 494.4 499.2 503.2 507.2 508.8 506.4 498.4 496.8 497.6 501.6 505.6 505.6 500.8 490.4 479.2 466.4 447.2 437.6 436.8 453.6 470.4 488.8 508.8 531.2 552.8 570.4 587.2 605.6 620 612 587.2 569.6 572.8 588.8 574.4 546.4 520.8 507.2 503.2 515.2 531.2 551.2 568 584 592.8 601.6 620.8 650.4 672 661.6 621.6 586.4 564 547.2 534.4 528 528.8 536 528.8 500 477.6 468 450.4 430.4 408.8 403.2 404.8 399.2 394.4 388.8 380 372 364 354.4 342.4 328.8 315.2 304.8 301.6 300.8 300 300 299.2 300.8 298.4 297.6 296 305.6 316.8 325.6 332.8 341.6 343.2 345.6 347.2 347.2 348.8 351.2 352.8 353.6 355.2 363.2 371.2 378.4 383.2 384 384.8 392 400 407.2 412 416 418.4 420 422.4 423.2 426.4 430.4 436 440 440.8 439.2 440 441.6 441.6 442.4 442.4 441.6 440 442.4 444.8 444.8 447.2 449.6 452 456 462.4 468.8 472.8 476 481.6 488 492 498.4 504.8 507.2 512 519.2 525.6 531.2 537.6 540.8 540 537.6 534.4 532.8 532.8 536 539.2 539.2 536.8 535.2 536.8 538.4 538.4 538.4 541.6 546.4 546.4 544 540 539.2 542.4 544.8
65.6 56.8 48 40.8 32 24.8 19.2 16 15.2 15.2 15.2 16.8 18.4 19.2 19.2 20 20 20 20 20 20 20 20.8 22.4 24 24.8 26.4 27.2 28.8 30.4 32.8 34.4 36 40 50.4 63.2 72 80.8 89.6 96.8 104.8 114.4 126.4 140.8 157.6 173.6 190.4 209.6 224.8 236.8 248.8 261.6 274.4 284 293.6 301.6 309.6 317.6 325.6 335.2 344 352 361.6 372 381.6 390.4 400 408 419.2 429.6 442.4 456 464.8 470.4 475.2 480.8 486.4 492 496.8 496 494.4 491.2 481.6 480.8 484 486.4 488.8 488 483.2 474.4 460.8 444 428.8 421.6 429.6 448 468 485.6 503.2 524.8 549.6 566.4 584.8 597.6 605.6 588 565.6 548.8 554.4 568.8 559.2 529.6 503.2 489.6 492 512 526.4 538.4 557.6 572.8 575.2 583.2 604.8 636.8 656.8 650.4 612.8 566.4 541.6 521.6 510.4 509.6 512.8 518.4 506.4 473.6 450.4 441.6 433.6 420.8 399.2 384.8 384.8 381.6 374.4 368.8 361.6 354.4 346.4 337.6 326.4 312.8 303.2 294.4 292 292 292 291.2 292 293.6 290.4 290.4 296 310.4 324 336.8 345.6 350.4 353.6 357.6 360 359.2 360.8 364 366.4 367.2 366.4 375.2 383.2 389.6 393.6 396 399.2 408 415.2 420 423.2 427.2 430.4 432.8 435.2 438.4 441.6 445.6 451.2 455.2 454.4 453.6 454.4 456 456 455.2 455.2 452.8 451.2 452.8 455.2 456 456.8 459.2 463.2 467.2 474.4 480 484 486.4 492 498.4 503.2 508.8 516.8 524 529.6 536.8 543.2 544 548.8 556.8 558.4 556 552.8 549.6 548 548 551.2 551.2 548.8 546.4 548 549.6 549.6 548.8 548.8 552 553.6 552.8 549.6 548 549.6 551.2
69.6 60.8 51.2 41.6 32.8 24.8 19.2 16 15.2 15.2 16 17.6 18.4 19.2 20 20 20 20 20 20 20.8 20.8 21.6 22.4 23.2 24.8 26.4 27.2 28.8 30.4 32 34.4 36 37.6 47.2 60.8 72.8 81.6 90.4 98.4 107.2 115.2 124.8 138.4 154.4 170.4 188 207.2 224 237.6 249.6 263.2 275.2 283.2 291.2 299.2 306.4 313.6 321.6 331.2 340 348.8 357.6 367.2 377.6 387.2 396.8 405.6 418.4 428.8 440 451.2 457.6 460.8 462.4 468.8 474.4 480 486.4 480 476 472.8 464.8 464.8 470.4 473.6 474.4 470.4 464 453.6 433.6 416.8 408 408.8 424.8 446.4 463.2 481.6 500 521.6 541.6 558.4 575.2 583.2 582.4 560.8 537.6 528.8 540.8 548.8 532 510.4 488 472.8 481.6 499.2 511.2 530.4 550.4 554.4 555.2 572 594.4 617.6 640.8 639.2 601.6 563.2 532 512 496.8 494.4 499.2 497.6 481.6 454.4 429.6 420.8 416 405.6 388 368.8 368.8 365.6 356.8 351.2 346.4 340 331.2 322.4 312 300 291.2 286.4 285.6 284.8 284 284.8 285.6 285.6 284.8 291.2 304 315.2 329.6 343.2 353.6 360 364 369.6 372.8 372 374.4 377.6 380.8 381.6 383.2 391.2 396.8 402.4 407.2 410.4 416 425.6 431.2 432.8 436.8 440.8 445.6 450.4 455.2 458.4 463.2 466.4 468.8 471.2 471.2 471.2 470.4 469.6 468.8 468 466.4 464 460.8 463.2 465.6 466.4 467.2 468.8 473.6 478.4 486.4 492.8 497.6 499.2 503.2 510.4 515.2 519.2 527.2 536.8 548 555.2 564 570.4 570.4 573.6 577.6 576 572 568.8 565.6 562.4 564.8 565.6 564 560 560.8 564 564 560.8 557.6 559.2 562.4 564.8 561.6 558.4 559.2 559.2
73.6 64 52 42.4 33.6 26.4 20 16 15.2 15.2 16 17.6 19.2 19.2 20 20 20.8 20.8 20.8 20.8 20.8 21.6 21.6 22.4 23.2 24 25.6 27.2 28.8 30.4 32 33.6 35.2 37.6 45.6 60 74.4 84 91.2 97.6 107.2 116.8 127.2 140.8 155.2 168.8 186.4 205.6 222.4 238.4 250.4 263.2 275.2 282.4 290.4 296.8 303.2 309.6 317.6 326.4 336 344 352.8 361.6 372.8 383.2 392.8 402.4 413.6 424 432 440 445.6 447.2 448 455.2 460.8 466.4 472.8 470.4 459.2 455.2 448.8 448 455.2 459.2 458.4 451.2 436.8 421.6 409.6 394.4 388.8 402.4 420.8 440.8 459.2 477.6 497.6 519.2 540.8 554.4 564 560 548 529.6 513.6 513.6 523.2 520 506.4 483.2 468 461.6 472.8 488 505.6 524 535.2 531.2 545.6 573.6 592.8 609.6 624.8 621.6 597.6 562.4 534.4 511.2 481.6 470.4 473.6 467.2 455.2 442.4 425.6 403.2 397.6 389.6 376 359.2 353.6 348.8 341.6 336 330.4 323.2 317.6 308.8 299.2 290.4 281.6 279.2 278.4 276.8 276.8 277.6 277.6 280.8 285.6 296.8 308.8 321.6 336.8 349.6 363.2 372.8 378.4 382.4 386.4 386.4 389.6 393.6 396 397.6 401.6 409.6 414.4 417.6 422.4 424.8 431.2 442.4 448.8 451.2 456 461.6 464.8 473.6 480.8 484.8 488.8 492.8 496 495.2 494.4 492.8 491.2 489.6 487.2 484.8 480.8 475.2 471.2 474.4 477.6 478.4 477.6 477.6 484 491.2 499.2 507.2 512 515.2 516.8 523.2 528 530.4 537.6 551.2 568 579.2 582.4 589.6 595.2 596 598.4 600 596 591.2 585.6 580.8 578.4 579.2 580 575.2 574.4 576.8 576.8 573.6 570.4 570.4 570.4 574.4 572 569.6 570.4 568.8
76.8 65.6 55.2 45.6 36 28 20.8 16.8 16 16 16 16.8 19.2 20 20 20 20 20.8 20.8 21.6 21.6 22.4 22.4 23.2 23.2 24 25.6 27.2 28.8 30.4 32 33.6 35.2 36.8 43.2 57.6 72.8 85.6 92.8 99.2 106.4 115.2 127.2 140.8 154.4 168.8 185.6 203.2 220.8 236.8 249.6 262.4 273.6 282.4 290.4 296 301.6 308 313.6 320.8 331.2 339.2 348 356 367.2 378.4 387.2 396.8 404 410.4 416 422.4 428.8 431.2 430.4 439.2 444.8 452.8 460 454.4 443.2 437.6 431.2 432.8 439.2 442.4 441.6 428.8 408.8 390.4 386.4 377.6 376.8 396 415.2 435.2 455.2 472.8 492 516.8 534.4 544.8 546.4 533.6 514.4 509.6 495.2 495.2 494.4 488 477.6 460.8 450.4 450.4 464.8 481.6 498.4 510.4 508 516.8 539.2 562.4 583.2 599.2 604 596 584.8 562.4 536 506.4 474.4 452 444.8 436.8 431.2 424 412.8 392.8 380.8 372 360.8 344.8 334.4 332.8 327.2 320.8 315.2 311.2 304.8 297.6 288.8 279.2 272 271.2 270.4 268.8 269.6 270.4 277.6 284 291.2 303.2 316 329.6 345.6 359.2 370.4 383.2 391.2 397.6 400.8 401.6 407.2 412 413.6 413.6 420 426.4 428.8 432.8 439.2 441.6 447.2 460.8 468.8 475.2 481.6 489.6 496 501.6 508.8 513.6 516.8 520 520 517.6 518.4 517.6 515.2 512 507.2 504 499.2 490.4 484.8 488 492.8 494.4 492.8 490.4 496.8 504.8 512 520 525.6 529.6 532 536.8 544 548 551.2 565.6 588 602.4 604 611.2 616.8 620 620.8 624.8 622.4 616 606.4 599.2 593.6 593.6 593.6 592.8 589.6 591.2 589.6 586.4 584.8 584 583.2 585.6 588 585.6 583.2 580.8
80 69.6 58.4 48 37.6 29.6 23.2 18.4 16.8 16.8 16.8 16.8 18.4 18.4 19.2 19.2 20 20.8 21.6 22.4 22.4 23.2 23.2 24 24 24 25.6 27.2 28.8 30.4 32 33.6 35.2 36.8 40 54.4 69.6 84 92 99.2 106.4 114.4 125.6 137.6 152 166.4 184 200.8 217.6 235.2 248 260 272 280.8 288.8 296 302.4 308.8 314.4 320 329.6 336.8 344 352 360.8 372.8 381.6 388 392.8 396 400 403.2 407.2 412.8 416 421.6 427.2 436 444.8 440.8 423.2 418.4 413.6 417.6 422.4 425.6 423.2 407.2 390.4 372 366.4 361.6 371.2 388 405.6 426.4 448 468.8 484 504.8 520 524 520.8 512.8 491.2 486.4 478.4 471.2 464.8 460.8 456 442.4 435.2 441.6 457.6 476.8 485.6 486.4 488 509.6 536.8 552.8 569.6 581.6 577.6 564 550.4 539.2 521.6 496 474.4 451.2 429.6 417.6 411.2 405.6 393.6 378.4 365.6 353.6 343.2 328.8 319.2 317.6 314.4 308 301.6 297.6 293.6 286.4 276.8 267.2 263.2 263.2 263.2 263.2 268 276.8 284 290.4 298.4 309.6 327.2 342.4 358.4 373.6 383.2 392 407.2 413.6 415.2 416 424 430.4 432.8 432.8 440.8 448.8 451.2 453.6 458.4 461.6 467.2 478.4 489.6 500.8 510.4 517.6 524.8 529.6 533.6 537.6 540 540.8 538.4 535.2 536.8 535.2 532.8 528.8 524 521.6 519.2 510.4 499.2 503.2 508 511.2 509.6 504.8 510.4 519.2 525.6 532 540 548.8 551.2 555.2 564.8 574.4 576.8 584.8 604 619.2 625.6 632 638.4 640.8 645.6 649.6 647.2 639.2 630.4 622.4 612.8 607.2 608 609.6 605.6 604 604 600.8 600.8 599.2 596.8 596.8 602.4 603.2 599.2 593.6
83.2 71.2 60 48.8 38.4 30.4 24.8 19.2 17.6 18.4 17.6 16.8 16.8 16.8 18.4 19.2 20 21.6 22.4 24 24 24 24 24 24.8 24.8 25.6 26.4 28 29.6 31.2 32.8 34.4 36 38.4 50.4 64.8 78.4 89.6 97.6 104.8 114.4 125.6 137.6 150.4 164 181.6 197.6 215.2 232 244.8 256 268.8 279.2 287.2 294.4 302.4 310.4 318.4 324.8 330.4 337.6 343.2 349.6 357.6 367.2 374.4 378.4 380 381.6 384.8 387.2 389.6 395.2 400 403.2 409.6 416.8 423.2 421.6 409.6 400.8 396.8 401.6 404.8 405.6 398.4 384.8 370.4 352 345.6 350.4 370.4 386.4 401.6 420 438.4 459.2 475.2 491.2 500 493.6 492.8 484.8 466.4 468 468.8 448.8 444 441.6 435.2 427.2 420.8 432.8 452 469.6 467.2 463.2 478.4 504 524 536.8 555.2 556 546.4 528 516 504 492.8 480.8 469.6 451.2 431.2 412 396 385.6 373.6 361.6 348.8 337.6 325.6 316 306.4 302.4 300.8 295.2 289.6 285.6 280.8 273.6 265.6 260 257.6 256.8 259.2 263.2 274.4 284.8 293.6 300 307.2 313.6 332.8 352.8 374.4 390.4 408 416.8 424.8 431.2 432 429.6 434.4 445.6 452.8 456 462.4 468 472.8 477.6 483.2 486.4 491.2 500 508 520 532.8 540 542.4 548 552.8 556 559.2 559.2 556.8 552 551.2 548 543.2 539.2 535.2 532 532 528 514.4 516 524 527.2 524.8 520 525.6 535.2 547.2 552 555.2 566.4 580.8 587.2 597.6 608 608.8 607.2 619.2 634.4 643.2 657.6 669.6 671.2 672.8 688.8 683.2 672.8 662.4 650.4 637.6 630.4 626.4 628.8 624.8 618.4 624 620.8 620 619.2 615.2 610.4 617.6 620 614.4 605.6
83.2 72 60 49.6 40 31.2 24.8 20 18.4 19.2 18.4 16.8 16.8 16.8 17.6 19.2 20 22.4 24 25.6 25.6 25.6 25.6 25.6 25.6 25.6 25.6 26.4 28 29.6 31.2 32.8 34.4 36 37.6 45.6 60 73.6 86.4 95.2 103.2 112 123.2 135.2 148 161.6 178.4 194.4 210.4 227.2 240.8 252.8 264 275.2 284 292 300.8 308.8 318.4 328 334.4 340 344.8 350.4 356.8 361.6 364 364.8 364.8 365.6 368.8 371.2 374.4 380.8 384 386.4 393.6 400 405.6 406.4 396.8 385.6 383.2 387.2 386.4 380.8 371.2 359.2 346.4 332.8 328.8 344 364 381.6 396 412 429.6 447.2 460.8 468 475.2 464 455.2 451.2 445.6 454.4 460 439.2 426.4 424.8 420 411.2 408.8 426.4 444.8 454.4 444 448.8 472.8 490.4 502.4 524 534.4 525.6 513.6 492 476 468 458.4 455.2 452.8 440.8 428 408 384 366.4 355.2 344 332.8 324 316 304.8 293.6 288 288 284 279.2 274.4 269.6 263.2 257.6 253.6 252.8 254.4 259.2 266.4 278.4 290.4 301.6 311.2 321.6 325.6 336.8 359.2 385.6 408.8 436.8 444.8 446.4 450.4 451.2 450.4 451.2 460.8 472.8 480.8 486.4 493.6 499.2 504 511.2 517.6 522.4 526.4 527.2 531.2 542.4 550.4 556.8 564 570.4 575.2 578.4 578.4 574.4 568 564 560 552.8 547.2 543.2 539.2 540 536 525.6 526.4 538.4 543.2 539.2 532 536 551.2 570.4 581.6 590.4 599.2 612.8 626.4 632.8 637.6 633.6 627.2 632 648 665.6 684.8 700.8 712 710.4 708.8 717.6 717.6 704 686.4 668 656.8 648.8 648.8 648.8 643.2 642.4 643.2 642.4 640 634.4 626.4 630.4 632 626.4 617.6
81.6 71.2 60 49.6 40 32 25.6 20.8 20 20 18.4 16.8 16.8 16.8 16.8 19.2 20.8 24 25.6 26.4 27.2 27.2 26.4 26.4 26.4 26.4 26.4 26.4 27.2 28.8 30.4 32 34.4 36 36.8 41.6 55.2 68.8 81.6 91.2 100 109.6 120 132.8 145.6 159.2 174.4 190.4 205.6 221.6 236 248 259.2 271.2 280.8 288.8 298.4 306.4 315.2 328 336.8 341.6 345.6 350.4 354.4 355.2 349.6 346.4 348 350.4 352.8 356 360 367.2 369.6 373.6 380 385.6 390.4 389.6 383.2 372 369.6 372.8 368.8 361.6 348.8 334.4 324 316 320 338.4 356 371.2 386.4 401.6 418.4 432.8 438.4 436.8 440 432 418.4 417.6 421.6 437.6 444 432.8 412 406.4 401.6 393.6 403.2 420.8 438.4 435.2 427.2 445.6 471.2 492 506.4 508.8 504 496 487.2 458.4 442.4 436.8 432 438.4 440 426.4 411.2 393.6 376 356 335.2 326.4 317.6 309.6 304 292.8 282.4 277.6 276.8 272.8 268.8 264.8 260 255.2 251.2 249.6 251.2 256 262.4 270.4 282.4 294.4 307.2 320 332 339.2 347.2 368 394.4 424 451.2 468 474.4 475.2 474.4 473.6 475.2 480.8 490.4 501.6 511.2 516.8 524.8 531.2 539.2 545.6 551.2 555.2 551.2 541.6 552 563.2 572.8 580 588 594.4 596 593.6 588.8 580 576 570.4 562.4 554.4 549.6 547.2 547.2 543.2 536 534.4 547.2 553.6 552 543.2 547.2 565.6 584.8 598.4 612 628.8 635.2 644.8 657.6 662.4 656 645.6 645.6 663.2 680 700.8 720.8 736.8 742.4 740 744 748.8 744 725.6 704.8 688.8 672 666.4 668.8 662.4 659.2 662.4 663.2 660 650.4 639.2 640 641.6 638.4 635.2
80 68.8 59.2 49.6 40.8 32.8 26.4 23.2 20.8 20 17.6 16.8 16.8 16.8 17.6 19.2 21.6 24.8 27.2 28 28 28 28 27.2 27.2 27.2 27.2 27.2 28 28.8 29.6 32 34.4 35.2 36.8 40 50.4 63.2 76 87.2 96 106.4 116.8 128.8 143.2 156 169.6 186.4 200.8 216 229.6 242.4 253.6 264.8 276 285.6 295.2 304 312 322.4 332 339.2 342.4 347.2 346.4 343.2 335.2 330.4 333.6 336 336.8 340.8 348 356 355.2 360 367.2 370.4 376.8 373.6 364.8 357.6 352.8 357.6 353.6 345.6 330.4 316 307.2 301.6 315.2 331.2 344.8 360 374.4 386.4 397.6 408 412.8 408.8 406.4 404 393.6 396.8 404 411.2 423.2 424.8 405.6 390.4 384.8 383.2 399.2 415.2 424.8 410.4 416 436.8 460 476.8 477.6 474.4 466.4 464.8 456.8 424.8 414.4 411.2 414.4 428.8 431.2 413.6 389.6 372.8 355.2 335.2 320 309.6 303.2 295.2 285.6 278.4 272.8 268 266.4 264 260.8 256.8 252.8 249.6 247.2 248 252 259.2 266.4 276 287.2 299.2 312 327.2 339.2 350.4 360.8 379.2 404.8 436 460 483.2 500 504.8 509.6 511.2 508.8 507.2 507.2 515.2 530.4 543.2 551.2 559.2 565.6 572 577.6 581.6 574.4 562.4 573.6 584 590.4 596 604 607.2 607.2 604.8 598.4 590.4 586.4 580 570.4 563.2 558.4 557.6 557.6 552.8 547.2 542.4 554.4 564 564.8 560 562.4 575.2 589.6 603.2 618.4 642.4 659.2 668 672.8 680.8 676 664.8 663.2 676.8 691.2 709.6 732 747.2 760.8 768.8 770.4 768.8 772.8 763.2 740.8 716 694.4 684.8 686.4 680.8 676 676.8 679.2 676.8 663.2 650.4 648.8 653.6 654.4 652
80.8 68.8 58.4 49.6 40.8 33.6 28.8 25.6 22.4 19.2 17.6 17.6 16.8 17.6 17.6 20 23.2 26.4 28 28.8 28.8 28.8 28 28 28 27.2 28 28 28.8 28.8 29.6 32 34.4 36 36.8 38.4 44.8 57.6 70.4 81.6 92 102.4 112.8 125.6 139.2 152 165.6 181.6 196 209.6 223.2 236 248 258.4 270.4 280.8 290.4 300.8 307.2 315.2 325.6 332.8 333.6 334.4 332 328.8 320.8 312.8 320.8 321.6 320.8 325.6 333.6 338.4 339.2 346.4 352 353.6 357.6 357.6 345.6 342.4 337.6 339.2 335.2 325.6 315.2 299.2 288 293.6 308.8 320.8 333.6 346.4 360 369.6 376.8 382.4 384.8 384 382.4 378.4 375.2 382.4 384.8 391.2 404 412 400.8 377.6 368.8 377.6 396 407.2 400.8 390.4 402.4 411.2 422.4 418.4 425.6 429.6 430.4 436.8 435.2 408.8 391.2 392 404 418.4 416 393.6 368 348.8 333.6 320 308 296 290.4 283.2 273.6 268 264 259.2 257.6 256 253.6 250.4 247.2 244.8 244 248.8 254.4 262.4 269.6 280.8 291.2 303.2 316 332 344.8 358.4 372 389.6 414.4 442.4 465.6 491.2 515.2 528 538.4 540.8 539.2 536 528 533.6 542.4 559.2 576 587.2 595.2 598.4 601.6 602.4 591.2 585.6 597.6 604.8 610.4 614.4 617.6 621.6 620 612.8 604 599.2 596 588.8 580 573.6 568 569.6 568 564.8 560.8 556 564.8 577.6 578.4 575.2 578.4 584 593.6 605.6 622.4 644.8 666.4 688 701.6 702.4 695.2 682.4 679.2 688.8 698.4 715.2 736.8 756.8 776.8 793.6 796.8 795.2 796 784.8 757.6 731.2 712.8 703.2 703.2 696.8 689.6 685.6 685.6 681.6 670.4 659.2 657.6 665.6 672 671.2
77.6 66.4 56.8 48.8 40.8 36 31.2 27.2 23.2 19.2 17.6 17.6 17.6 18.4 18.4 20.8 24 27.2 28.8 28.8 28.8 28.8 28.8 28.8 28 28 28 28.8 28.8 29.6 30.4 32 34.4 36 36.8 37.6 40.8 51.2 64 76 86.4 97.6 108.8 121.6 135.2 148 160.8 176 190.4 203.2 216 229.6 241.6 252 263.2 274.4 284 292.8 300.8 309.6 319.2 323.2 319.2 317.6 314.4 312.8 304.8 299.2 303.2 305.6 306.4 311.2 320 322.4 326.4 334.4 333.6 332.8 332.8 334.4 328 326.4 323.2 324 322.4 306.4 296 284 276.8 285.6 300.8 309.6 323.2 335.2 345.6 353.6 358.4 358.4 360 359.2 360 357.6 356 364.8 368.8 380 393.6 399.2 380.8 360.8 358.4 374.4 390.4 396 381.6 373.6 380.8 385.6 394.4 396 397.6 399.2 406.4 410.4 404.8 387.2 371.2 376 388 392 384.8 368 346.4 330.4 317.6 304.8 293.6 284.8 278.4 272.8 265.6 260 256 250.4 248.8 248.8 247.2 244 241.6 240.8 244.8 250.4 257.6 265.6 273.6 284.8 293.6 305.6 318.4 332.8 347.2 362.4 381.6 398.4 415.2 439.2 462.4 490.4 516 540 567.2 570.4 568 563.2 551.2 558.4 568.8 580 596 608.8 618.4 624.8 625.6 620 606.4 604.8 616.8 624 630.4 632 630.4 629.6 627.2 618.4 610.4 609.6 607.2 600 592.8 584.8 579.2 583.2 584 581.6 576 568.8 576 586.4 587.2 586.4 588 592.8 599.2 610.4 626.4 646.4 668.8 692.8 713.6 722.4 712.8 698.4 690.4 697.6 706.4 719.2 741.6 765.6 792 812.8 820 824.8 820.8 793.6 767.2 744 728.8 720.8 714.4 708 700.8 695.2 692 685.6 676 666.4 664.8 672.8 682.4 687.2
71.2 63.2 56 48 42.4 38.4 32.8 27.2 23.2 19.2 17.6 18.4 19.2 19.2 20 22.4 24.8 27.2 28.8 28.8 29.6 29.6 29.6 29.6 28.8 28.8 28.8 28.8 29.6 30.4 31.2 32.8 34.4 36 36.8 36.8 38.4 45.6 56.8 69.6 80 90.4 104 116.8 130.4 142.4 155.2 170.4 184 196 208 221.6 233.6 244 255.2 266.4 276 284 292 300.8 308 309.6 301.6 294.4 294.4 293.6 288 284 286.4 290.4 292.8 296.8 300.8 304 315.2 319.2 316.8 316.8 312 313.6 311.2 308.8 306.4 305.6 308 292 277.6 269.6 266.4 277.6 290.4 298.4 311.2 320 327.2 334.4 337.6 334.4 336 336 338.4 337.6 336 345.6 353.6 371.2 386.4 384 360.8 345.6 352 364 376 376 362.4 356 358.4 361.6 367.2 372 376 384 392 389.6 382.4 364.8 349.6 352.8 354.4 355.2 352 342.4 324 312 299.2 287.2 279.2 273.6 267.2 262.4 257.6 252.8 248 243.2 241.6 242.4 239.2 236.8 236.8 241.6 247.2 252 259.2 268 278.4 288.8 298.4 311.2 321.6 333.6 348 365.6 387.2 404 416.8 433.6 456.8 481.6 508.8 535.2 568 592 597.6 591.2 572.8 576.8 593.6 601.6 611.2 623.2 637.6 647.2 644 638.4 622.4 621.6 634.4 641.6 646.4 645.6 640 636 632.8 623.2 619.2 620.8 617.6 610.4 605.6 596 591.2 597.6 600 598.4 592 583.2 581.6 592 593.6 592.8 594.4 598.4 604.8 616 630.4 648 672.8 696 718.4 733.6 725.6 709.6 705.6 709.6 718.4 726.4 744 768 798.4 823.2 837.6 844.8 843.2 817.6 786.4 760 744 735.2 725.6 717.6 710.4 704 700.8 695.2 684.8 678.4 675.2 681.6 691.2 699.2
74.4 63.2 56 49.6 44 39.2 33.6 28 22.4 18.4 18.4 19.2 20 21.6 22.4 24 25.6 27.2 28 28.8 29.6 29.6 29.6 30.4 29.6 29.6 29.6 29.6 30.4 31.2 32 33.6 34.4 36 36.8 36.8 37.6 41.6 51.2 62.4 74.4 84.8 97.6 111.2 124.8 137.6 149.6 162.4 176.8 188.8 200 212 224.8 235.2 244.8 256 266.4 274.4 280.8 287.2 290.4 288 280.8 275.2 275.2 276 274.4 269.6 270.4 274.4 277.6 280 280.8 288 296.8 300 296.8 296.8 293.6 296 295.2 292.8 291.2 284.8 292 281.6 264 256 256.8 268.8 278.4 287.2 297.6 303.2 309.6 314.4 314.4 315.2 317.6 317.6 320.8 320.8 320 325.6 339.2 356 368 365.6 344.8 332.8 340.8 345.6 351.2 354.4 343.2 339.2 342.4 343.2 347.2 352 356.8 366.4 372.8 364.8 348 337.6 327.2 328 321.6 324 324.8 318.4 304 292 280.8 272 266.4 261.6 255.2 251.2 248.8 244.8 240 234.4 231.2 232 232 233.6 239.2 244.8 248.8 254.4 261.6 270.4 282.4 291.2 303.2 316.8 328.8 341.6 357.6 373.6 394.4 415.2 434.4 445.6 462.4 480.8 503.2 528.8 559.2 596 616.8 619.2 599.2 588.8 604 620.8 629.6 639.2 645.6 656 660 652.8 639.2 637.6 650.4 660 662.4 659.2 647.2 640 636 628.8 628.8 631.2 628 622.4 617.6 607.2 604.8 609.6 612 612.8 605.6 594.4 588.8 596.8 600 598.4 600 604 611.2 620 635.2 652.8 677.6 700 720.8 739.2 740 725.6 720.8 720.8 728 735.2 747.2 769.6 800 826.4 842.4 855.2 864.8 849.6 821.6 783.2 760.8 747.2 736 727.2 719.2 713.6 710.4 708 702.4 696 690.4 688 696.8 708.8
75.2 64 56 48.8 44 39.2 33.6 28 21.6 18.4 18.4 20 21.6 23.2 24.8 25.6 26.4 26.4 28 28.8 29.6 29.6 30.4 30.4 30.4 30.4 30.4 30.4 30.4 31.2 32 33.6 34.4 36 36.8 36.8 37.6 39.2 45.6 55.2 66.4 79.2 90.4 104 117.6 131.2 142.4 155.2 168.8 180.8 191.2 202.4 213.6 224.8 234.4 243.2 253.6 261.6 267.2 271.2 272 269.6 263.2 258.4 258.4 260.8 260 256 253.6 256.8 260 262.4 263.2 270.4 276 279.2 277.6 273.6 276 280 278.4 274.4 272 269.6 276 270.4 254.4 241.6 246.4 257.6 268 280 286.4 289.6 292.8 296 296 298.4 300 300.8 304 304 306.4 311.2 321.6 332.8 340.8 342.4 334.4 320.8 322.4 321.6 327.2 332.8 324 322.4 327.2 328 332 333.6 334.4 341.6 341.6 333.6 320.8 315.2 308 305.6 301.6 300.8 301.6 296.8 285.6 274.4 265.6 259.2 255.2 249.6 243.2 240 239.2 236 231.2 224 220.8 225.6 231.2 236.8 242.4 246.4 250.4 256.8 264.8 276 287.2 296.8 309.6 321.6 334.4 348.8 364 379.2 400.8 423.2 447.2 466.4 484 499.2 514.4 530.4 555.2 585.6 620 642.4 618.4 612.8 623.2 635.2 647.2 660.8 668.8 674.4 677.6 664 656 659.2 671.2 679.2 677.6 667.2 651.2 640.8 639.2 635.2 638.4 641.6 638.4 633.6 628.8 616.8 614.4 618.4 624.8 627.2 617.6 604.8 596 603.2 607.2 605.6 605.6 609.6 616.8 626.4 640.8 659.2 683.2 704.8 724 741.6 756 752 738.4 733.6 736.8 742.4 750.4 772 800 822.4 836.8 851.2 866.4 874.4 853.6 814.4 781.6 760 748.8 738.4 732 726.4 723.2 723.2 720 713.6 706.4 702.4 703.2 716.8
78.4 65.6 56 47.2 42.4 37.6 32 27.2 21.6 18.4 19.2 20.8 22.4 24 26.4 28 28 27.2 28 28.8 28.8 29.6 30.4 30.4 31.2 31.2 31.2 31.2 31.2 32 32.8 33.6 35.2 36 36 36.8 37.6 37.6 41.6 49.6 58.4 70.4 83.2 96 109.6 123.2 134.4 146.4 160 172 182.4 192 202.4 213.6 223.2 232 240.8 248 251.2 252.8 254.4 251.2 245.6 240 241.6 245.6 245.6 241.6 235.2 239.2 244 245.6 246.4 252.8 256.8 258.4 256 252 256 260.8 259.2 252.8 251.2 252.8 260 255.2 244 227.2 233.6 245.6 258.4 270.4 274.4 274.4 276.8 279.2 279.2 280 282.4 282.4 286.4 285.6 290.4 296.8 301.6 310.4 318.4 328 327.2 314.4 299.2 295.2 305.6 312.8 306.4 301.6 309.6 311.2 316.8 316.8 314.4 316 314.4 311.2 301.6 295.2 289.6 286.4 286.4 284 282.4 277.6 268.8 260.8 252.8 247.2 242.4 237.6 232.8 229.6 228.8 226.4 221.6 214.4 219.2 227.2 234.4 239.2 244 248 252.8 260.8 271.2 282.4 290.4 302.4 315.2 328 344.8 357.6 374.4 389.6 407.2 424.8 444 467.2 492 513.6 533.6 549.6 557.6 578.4 613.6 655.2 648.8 638.4 647.2 652 660 676.8 688.8 694.4 696 680.8 680 677.6 684.8 693.6 690.4 675.2 659.2 645.6 644.8 641.6 646.4 649.6 648 643.2 634.4 625.6 625.6 625.6 632 635.2 623.2 610.4 601.6 604 613.6 614.4 613.6 616.8 624 634.4 648 666.4 688.8 709.6 728 744.8 764.8 772 759.2 751.2 747.2 747.2 756 775.2 796.8 813.6 828 843.2 862.4 880.8 872.8 838.4 800.8 776.8 760.8 751.2 745.6 739.2 735.2 735.2 733.6 727.2 720.8 716.8 712.8 722.4
